2.3936441856790975,0.2998659031598554,0.3867889007962525,-0.08526677048286513,0.8,0.15000000000000002
2.3879012096583607,0.3018494341930485,0.3890660439853171,-0.0838207487076772,0.8,0.15000000000000002
2.376459243459829,0.3063885194399884,0.3936456645154347,-0.08103656820317906,0.8,0.15000000000000002
2.370758286173475,0.3089563039585161,0.39595293219157535,-0.0796965349796408,0.8,0.15000000000000002
2.3593945965058487,0.3146970617037044,0.40060437991011955,-0.07711804614364559,0.8,0.15000000000000002
2.353731492868022,0.3178716328537758,0.4029480820060376,-0.07587933510982481,0.8,0.15000000000000002
2.342442313032868,0.32483073570225696,0.4076696879824242,-0.07349832868086126,0.8,0.15000000000000002
2.3368162013568123,0.32861540858624594,0.4100468523916423,-0.07235581679225445,0.8,0.15000000000000002
2.3256009726933087,0.3367954606366425,0.41483199448254693,-0.0701640621026971,0.8,0.15000000000000002
2.320012005740914,0.34119057801335784,0.4172393101023739,-0.0691130980343686,0.8,0.15000000000000002
2.308871911822855,0.35059027394164544,0.4220818282648584,-0.06709958879016353,0.8,0.15000000000000002
2.3033210915897655,0.3555946117276299,0.4245163884231038,-0.06613526352437082,0.8,0.15000000000000002
2.2977832804591456,0.3608020514638147,0.42695937956634644,-0.06519927406174464,0.8,0.15000000000000002
2.2867477384380392,0.3718243982339117,0.43186966424296847,-0.06340725193917507,0.8,0.15000000000000002
2.281250459644989,0.3776393310531184,0.4343363548175989,-0.06255080567271154,0.8500000000000001,0.15000000000000002
2.270297494087497,0.38987434481061767,0.43929116878502406,-0.061046725605755636,0.8500000000000001,0.15000000000000002
2.264832394797923,0.3962849148333606,0.4417750768670927,-0.06061211950633538,0.8500000000000001,0.15000000000000002
2.253911623582248,0.4096899764776149,0.44675459661459427,-0.05975459767267788,0.8500000000000001,0.15000000000000002
2.2484577602554108,0.4166873009665743,0.4492510450727929,-0.059332862312960755,0.8500000000000001,0.15000000000000002
2.2375683629314373,0.43127340745169046,0.45425748946726796,-0.058505010949226444,0.8500000000000001,0.15000000000000002
2.232134956365549,0.4388624529320566,0.45676727722747357,-0.05809929637561839,0.8500000000000001,0.15000000000000002
2.221296265095851,0.4546312343834651,0.46179952420553017,-0.05730650030987383,0.8500000000000001,0.15000000000000002
2.2158931330395824,0.4628104867219614,0.46432176028228955,-0.05691985761594753,0.8500000000000001,0.2
2.2051246274504646,0.4797574864493081,0.46937789013786113,-0.0561667241132342,0.8500000000000001,0.2
2.200185581644464,0.48648363441763637,0.4710956562409676,-0.05497367002593245,0.8500000000000001,0.2
2.191973917456138,0.49308525456438884,0.4714508522241878,-0.05383872358307906,0.8500000000000001,0.25
2.1881547488028734,0.49552277740602113,0.47120397545663195,-0.0534120348949676,0.8500000000000001,0.25
2.1811949449311143,0.49810171045997775,0.46971600963528126,-0.051666456079497936,0.8500000000000001,0.25
2.178695721181105,0.49528925351014225,0.46724142493553966,-0.05092078772385378,0.8500000000000001,0.25
2.1744332488428118,0.4867213540864909,0.461123354767345,-0.04991683220376153,0.8500000000000001,0.25
2.1724567168276403,0.4818276274697439,0.45787739250828907,-0.049495441215491986,0.8500000000000001,0.3
2.1686476813093942,0.4714235474959504,0.45130365236157277,-0.04871335630856799,0.8500000000000001,0.3
2.166845897373464,0.46571687120826966,0.4479196225393074,-0.04725470033402446,0.8500000000000001,0.3
2.1651683500219465,0.4445673507015871,0.43725894378886654,-0.04586155456842844,0.8500000000000001,0.3
2.1646113392365764,0.4320548190012498,0.431257306472961,-0.0453540647695041,0.8500000000000001,0.3
2.1635004596498555,0.40537570824090086,0.4189386289994266,-0.04450458687437897,0.8500000000000001,0.3
2.162877032163779,0.39143391141919254,0.41273113210236767,-0.04411889690873627,0.8500000000000001,0.3
2.161415216114209,0.36250242707527774,0.4002990973727236,-0.043394054651333835,0.8500000000000001,0.3
2.160556080773583,0.3475293409955329,0.3940827105357332,-0.043052866383372246,0.8500000000000001,0.3
2.1595992653423517,0.33222225908360986,0.3878678800735904,-0.042724580701830606,0.8500000000000001,0.3
2.1573582015841457,0.30060949440683293,0.37544367125406497,-0.04210411827330063,0.8500000000000001,0.3
2.1546235588415983,0.2676737167850824,0.3630271078095799,-0.041529821118458266,0.8500000000000001,0.3
2.153049972376536,0.25071301182408945,0.3568216526449184,-0.04125817781763752,0.8500000000000001,0.3
2.1494481864008748,0.2158144795150364,0.3444162006526992,-0.040746310571360356,0.8500000000000001,0.25
2.1474033619404733,0.1978798106454511,0.33821603345785145,-0.04050499484608494,0.8500000000000001,0.25
2.145184869766741,0.1796242661934348,0.3320175216022694,-0.04027224654307027,0.8500000000000001,0.2
2.1398898978305128,0.14648278544794402,0.3214577629266018,-0.0408711150058112,0.8500000000000001,0.2
2.136770271792832,0.1329320691614972,0.31764562694496656,-0.040984716658067466,0.8500000000000001,0.2
2.129670383442082,0.11405084973758106,0.313776274674602,-0.041909222801777224,0.8500000000000001,0.2
2.1258378522684542,0.10731455893436741,0.3130734222796643,-0.04202782186134146,0.8500000000000001,0.2
2.1179092214102613,0.09505216525278655,0.31222113667001716,-0.042104280565822494,0.8500000000000001,0.2
2.113839191411509,0.0891383860710528,0.3118837890219721,-0.04211711571350585,0.8500000000000001,0.2
2.1055063639636327,0.07747777898344142,0.31125011600958286,-0.042126516377752,0.8500000000000001,0.2
2.1012459550279545,0.07170586078298716,0.31093980750784467,-0.042126622924390844,0.8500000000000001,0.2
2.0925403860891403,0.060265123932806454,0.31032231377751684,-0.0421189665405437,0.8500000000000001,0.2
2.0880962355463186,0.05459545970047075,0.310014117095166,-0.042112529362883455,0.8500000000000001,0.2
2.0790275759572943,0.04336037609953228,0.3093981716885603,-0.042094790626797884,0.8500000000000001,0.2
2.069721580485626,0.03226950405548394,0.30878267666131487,-0.042070902819989486,0.8500000000000001,0.2
2.0649807742995723,0.026779557190991874,0.3084750878833642,-0.042057562798196724,0.8500000000000001,0.2
2.06018206157022,0.021328178198242936,0.3081676180682722,-0.04204317342226238,0.8500000000000001,0.2
2.0504128342028007,0.010540992636181053,0.30755300347892867,-0.042012074916227826,0.8500000000000001,0.15000000000000002
2.045443301475832,0.005207473954697851,0.3072458840682404,-0.04199538468382524,0.8500000000000001,0.15000000000000002
2.0353373473148415,-0.004948810414260498,0.3067954546233471,-0.042364984133040906,0.8500000000000001,0.15000000000000002
2.0301918314377,-0.006236709568338246,0.3082400843888502,-0.042586040996363206,0.8500000000000001,0.15000000000000002
2.019760122925711,-0.004761835402751758,0.3127962240232942,-0.042847864428227966,0.8500000000000001,0.15000000000000002
2.014480587406723,-0.0031860171446811826,0.3153464108716886,-0.04291351549333,0.8500000000000001,0.15000000000000002
2.0038013234486045,0.0008084281914751758,0.3205729947683964,-0.043012151932865894,0.8500000000000001,0.15000000000000002
1.9984044452697707,0.0031457815366217495,0.3232062040296544,-0.04305367927855186,0.8500000000000001,0.15000000000000002
1.9875036390926868,0.00844606876872175,0.32848158997284926,-0.04312590695768481,0.8500000000000001,0.15000000000000002
1.9820027163261076,0.011403840635569183,0.3311206803920119,-0.043157394960629425,0.8500000000000001,0.15000000000000002
1.9709073341315855,0.01793184482243861,0.3363994590135295,-0.04321327954528109,0.8500000000000001,0.15000000000000002
1.9653158581527934,0.0215016236835238,0.3390389854323872,-0.043237984674671104,0.8500000000000001,0.15000000000000002
1.9540527875012803,0.029254071127197405,0.34431805969363305,-0.04328085284836081,0.8500000000000001,0.15000000000000002
1.9483841702823306,0.033436864281721185,0.34695760695975997,-0.04329973066332271,0.8500000000000001,0.15000000000000002
1.9369801438711345,0.04241571492224858,0.3522367456147837,-0.04333239768318675,0.8500000000000001,0.15000000000000002
1.9312476757980797,0.0472119298101421,0.3548763399242323,-0.04334626566968525,0.8500000000000001,0.15000000000000002
1.9197291425544054,0.05741814247683656,0.36015556782282143,-0.04337058095143154,0.8500000000000001,0.15000000000000002
1.9139459987271044,0.06282807614328811,0.362795221198458,-0.04338053807785247,0.8500000000000001,0.15000000000000002
1.902339223117638,0.07426114248952645,0.36807468803450893,-0.04339824184310581,0.8500000000000001,0.15000000000000002
1.8965185034625711,0.08028410561648935,0.37071451788918797,-0.043405232885024736,0.8500000000000001,0.15000000000000002
1.8848495934214584,0.0929433875625137,0.37599423908435714,-0.043417258761939914,0.8500000000000001,0.15000000000000002
1.87900429802414,0.09957941092922523,0.3786341618195257,-0.043422145160432635,0.8500000000000001,0.15000000000000002
1.8672992251444247,0.1134636297931125,0.3839141262137855,-0.04342968063585739,0.8500000000000001,0.15000000000000002
1.8614422958585288,0.12071180728947604,0.38655413098390046,-0.04343273224672006,0.8500000000000001,0.15000000000000002
1.8497268400120614,0.1358183630665132,0.3918343998333542,-0.04343673607608767,0.8500000000000001,0.15000000000000002
1.8438711597806543,0.14367660985798347,0.39447463323512943,-0.04343810967429462,0.8500000000000001,0.15000000000000002
1.8321709612160713,0.16000275934115865,0.399755153229707,-0.04343981008090103,0.8500000000000001,0.15000000000000002
1.8263292731966152,0.16847012375178555,0.4023954662643576,-0.04344000113295032,0.8500000000000001,0.15000000000000002
1.8146698165405695,0.18601190978554913,0.4076762595602057,-0.043439562237769236,0.8500000000000001,0.15000000000000002
1.8088548394206176,0.19508612206865164,0.4103166817242898,-0.0434388571515385,0.8500000000000001,0.15000000000000002
1.797261441718957,0.2138391059695694,0.4155977060996583,-0.04343745049265357,0.8500000000000001,0.15000000000000002
1.791485772242817,0.2235178535480532,0.418238192447669,-0.04343577645235497,0.8500000000000001,0.15000000000000002
1.7799835763443228,0.24347712568954472,0.42351934801130575,-0.043432696501972234,0.8500000000000001,0.15000000000000002
1.7742598236049874,0.2537569328682423,0.4261600247114421,-0.043431195545598156,0.8500000000000001,0.2
1.7631205713440752,0.27324862307669917,0.43063335700084204,-0.04262166517538546,0.8500000000000001,0.2
1.7581166759066351,0.27987494057476753,0.4311412681539455,-0.04232377632579154,0.8500000000000001,0.2
1.7486435401867055,0.2912855733444094,0.43101351651495534,-0.04209618694931927,0.8500000000000001,0.2
1.744068605015507,0.29674872117312096,0.4307664661414621,-0.04203271293532951,0.8500000000000001,0.2
1.7351652413294334,0.30765311210614,0.43018865513440163,-0.041929924863848944,0.8500000000000001,0.2
1.7308292307898845,0.3131382621608287,0.429886833482128,-0.04188416023399677,0.8500000000000001,0.2
1.7223841442480228,0.32420140144177034,0.42927794724298884,-0.0418004711373563,0.8500000000000001,0.2
1.718275037259497,0.3297805992093756,0.4289729524956645,-0.041762120260631974,0.8500000000000001,0.2
1.7102848360225447,0.3410311855852537,0.428363302664553,-0.04169057629966999,0.8500000000000001,0.2
1.7064041997152408,0.3467012360923256,0.42805876598066916,-0.0416576598486309,0.8500000000000001,0.2
1.6988731899825629,0.3581263963317789,0.42745034934587345,-0.04159549971354504,0.8500000000000001,0.2
1.695223267361084,0.3638799095349736,0.42714645038613286,-0.041566928912275314,0.8500000000000001,0.2
1.688155977821317,0.3754634220538693,0.4265392215708368,-0.041513809595713935,0.8500000000000001,0.2
1.6847390746310609,0.38129156955502175,0.4262358808197688,-0.04148957213397053,0.8500000000000001,0.25
1.6781397214823566,0.3930165274689304,0.4256296945019171,-0.04144416584331889,0.8500000000000001,0.25
1.6750100147082667,0.3986646751504507,0.4252204507660351,-0.04052655128405758,0.8500000000000001,0.3
1.6706535530023894,0.40270090977992173,0.4205283659713155,-0.03990508568404727,0.8500000000000001,0.3
1.669261650079316,0.40178853099483586,0.4167011812884618,-0.03853852206884456,0.8500000000000001,0.35
1.668244551583469,0.39288030480128033,0.405520439224627,-0.036435426159781015,0.8500000000000001,0.35
1.668717943572233,0.3841173420286378,0.39785672554863005,-0.03560830035901286,0.8500000000000001,0.35
1.6705491828431096,0.3616392338521761,0.3804903329853233,-0.034700649565839514,0.8500000000000001,0.35
1.6715735786268213,0.3490710720046974,0.37147845424700865,-0.03441534271233815,0.8500000000000001,0.35
1.673547283092264,0.32206837403025407,0.35330497822827756,-0.03394031396440589,0.8500000000000001,0.35
1.6744425747966896,0.3077131235180723,0.3441969885745082,-0.03372992031820354,0.8500000000000001,0.35
1.675953472457491,0.2773480639522844,0.3259765822027014,-0.03334325980588071,0.8500000000000001,0.3
1.676488098564163,0.26168426800922223,0.3170381856285256,-0.03387484638995031,0.8500000000000001,0.3
1.6761695470658806,0.23576531853755556,0.3028821500308272,-0.03448106570714837,0.8500000000000001,0.25
1.6756894629627186,0.22341662783460897,0.29648461017579386,-0.03455794105589094,0.8500000000000001,0.25
1.6743181789249812,0.1985321020978662,0.2842017591898389,-0.03520679112748493,0.8500000000000001,0.25
1.6731196660903198,0.18868952107444062,0.27974114906600533,-0.03562462913563613,0.8500000000000001,0.25
1.6701507263567725,0.1714107868725307,0.2725336406154435,-0.03610533965973972,0.8500000000000001,0.25
1.6685089317361121,0.16298136522222637,0.26921883665962687,-0.036233086069741516,0.8500000000000001,0.25
1.6667877527885933,0.1544680667336856,0.2659597071216977,-0.036338945529206246,0.8500000000000001,0.25
1.6631173497294591,0.1370205074956492,0.25949670548146386,-0.03652077445260682,0.8500000000000001,0.25
1.6591336736151894,0.11893411232283603,0.2530509392595359,-0.036679723603455505,0.8500000000000001,0.25
1.6570181052241262,0.1096450729417349,0.24982861596185701,-0.03675275282379187,0.8500000000000001,0.25
1.6548162823064905,0.10019275225425625,0.2466059715575617,-0.03682196055839837,0.8500000000000001,0.25
1.6501424612761657,0.08080179257032506,0.240159208059751,-0.036948993668003416,0.8500000000000001,0.25
1.6476647447691053,0.07086558213925516,0.23693507855693197,-0.037007086821941426,0.8500000000000001,0.25
1.6424134285963918,0.050517183867680594,0.2304852448832646,-0.037114491417472806,0.8500000000000001,0.25
1.6396341577367177,0.04010750605269528,0.22725958141495894,-0.03716375270019512,0.8500000000000001,0.2
1.6337542535727445,0.018826019540739303,0.22080711976015044,-0.03725422033616077,0.8500000000000001,0.2
1.6306467290313023,0.008355004459546329,0.21778774553943903,-0.03791677035576679,0.8500000000000001,0.15000000000000002
1.624059581481412,-0.005999506891506563,0.21556846295415166,-0.03842658067842897,0.8500000000000001,0.10000000000000002
1.6206441965213603,-0.010475525120887277,0.2159717132209651,-0.03912890964863691,0.8500000000000001,0.10000000000000002
1.6136371252677992,-0.013023227787069302,0.22023379884648264,-0.03995285777797375,0.8500000000000001,0.10000000000000002
1.6100633233927173,-0.010101932406888623,0.22458255638089586,-0.04035862724609496,0.8500000000000001,0.10000000000000002
1.6027435694382859,-0.0003344219771121246,0.23503818771424623,-0.04091342005446341,0.8500000000000001,0.10000000000000002
1.59899047990011,0.005516905836315579,0.24054638125749728,-0.04113502241301914,0.8500000000000001,0.10000000000000002
1.5912953835748525,0.01848557601873108,0.2516908054183178,-0.041529881950179925,0.8500000000000001,0.10000000000000002
1.5873542818772308,0.025537873289627325,0.257282786240117,-0.04171038296230334,0.8500000000000001,0.10000000000000002
1.5792880527204134,0.04073371635922811,0.2684747925635831,-0.042042235139531314,0.8500000000000001,0.10000000000000002
1.5751641814419657,0.04887280188729509,0.27407159457641805,-0.04219445183654891,0.8500000000000001,0.15000000000000002
1.5667378780812296,0.06622900009450264,0.2852649393396365,-0.04247592999650451,0.8500000000000001,0.15000000000000002
1.5625143923373508,0.07394954822055189,0.2900527299453328,-0.04203401870319534,0.8500000000000001,0.15000000000000002
1.554243695612279,0.08495950555440769,0.2965232550180992,-0.041953298915097914,0.8500000000000001,0.15000000000000002
1.5501225135622296,0.09009160931786356,0.2993167369485623,-0.04200339234839956,0.8500000000000001,0.15000000000000002
1.5418650778322065,0.10064949485970616,0.3046983313516636,-0.04212766912995969,0.8500000000000001,0.15000000000000002
1.53772620923201,0.10617508388835459,0.307356367362428,-0.04218920635282486,0.8500000000000001,0.15000000000000002
1.5335812200395085,0.11188597199779987,0.3100080266921412,-0.04224798501367055,0.8500000000000001,0.15000000000000002
1.5252775476156946,0.12387897726941426,0.31530445365432813,-0.042357306197537525,0.8500000000000001,0.15000000000000002
1.5211215092071046,0.13016371834417068,0.31795130698011187,-0.042407666277385125,0.8500000000000001,0.15000000000000002
1.512807982218786,0.14330997529667683,0.3232440078857497,-0.04250027618876451,0.8500000000000001,0.15000000000000002
1.5086532512039712,0.15017185984168152,0.32588994322167064,-0.042542924503931934,0.8500000000000001,0.15000000000000002
1.5003548176987378,0.16447215163873233,0.33118118245802997,-0.04262177597459704,0.8500000000000001,0.15000000000000002
1.49621388222474,0.17191009969983786,0.33382654712599846,-0.042657953450234265,0.8500000000000001,0.2
1.4879554251880591,0.18736084634335526,0.33911676906470456,-0.04272446941014585,0.8500000000000001,0.2
1.4838406374815218,0.19537316630265172,0.3417616481042791,-0.04275530251796433,0.8500000000000001,0.2
1.4763144293136887,0.20702033763341762,0.34418742263186797,-0.04172619502796282,0.8500000000000001,0.2
1.4728646411712576,0.21113948904048796,0.34424447548735326,-0.04160643347594184,0.8500000000000001,0.2
1.466224014148237,0.218747168456056,0.3438520445038882,-0.04150508756228577,0.8500000000000001,0.2
1.4629976517429026,0.22247716962537653,0.3435752117509061,-0.04147502324728092,0.8500000000000001,0.2
1.4567077781936468,0.22995103513227497,0.34298486865986355,-0.04142533778061952,0.8500000000000001,0.2
1.4536418753013731,0.2337100117223364,0.342684055662529,-0.04140298352674998,0.8500000000000001,0.25
1.4479025942080426,0.23980545958875138,0.3412344699014942,-0.04035650278856173,0.8500000000000001,0.25
1.4455789202638714,0.23996847500147295,0.338764623188601,-0.03994972492090332,0.8500000000000001,0.25
1.4413877104834765,0.23830634202983983,0.332734088474977,-0.03963206254811946,0.8500000000000001,0.25
1.439419705190167,0.23700656712825735,0.3295446538536053,-0.03953429801676167,0.8500000000000001,0.25
1.4356564526707853,0.23382112539931874,0.32308633458018665,-0.039371383971291696,0.8500000000000001,0.25
1.433848070377608,0.23196870616705903,0.3198452272286407,-0.03929972070945631,0.8500000000000001,0.25
1.4303571129800032,0.22776413265386156,0.31335890491764107,-0.039165642505400555,0.8500000000000001,0.25
1.4286676548151107,0.22541277367029097,0.31011569421249563,-0.03910495369297928,0.8500000000000001,0.25
1.4253844943252056,0.2202090776158807,0.30363035527323934,-0.03899197523153508,0.8500000000000001,0.25
1.4237842732977741,0.2173559228162994,0.3003883708041202,-0.03894063206108633,0.8500000000000001,0.25
1.4206506462318425,0.2111426168573947,0.29390555313001765,-0.03884542584366768,0.8500000000000001,0.25
1.4191107083626995,0.20778208169435697,0.29066477087613896,-0.03880199835761089,0.8500000000000001,0.25
1.4160684439423037,0.2005513557069546,0.2841844108354743,-0.03872079111056448,0.8500000000000001,0.25
1.4145597404260573,0.19667975402143348,0.2809446962086748,-0.03868347089806856,0.8500000000000001,0.25
1.4115508604745464,0.18842414446729516,0.2744663219046235,-0.038614224004143605,0.8500000000000001,0.25
1.4100443134178773,0.18403901583398438,0.27122752900398095,-0.03858377303226135,0.8500000000000001,0.25
1.4070107573549369,0.17475448065600518,0.26475081606676865,-0.03852532732059277,0.8500000000000001,0.25
1.4054773048775986,0.16985500920680932,0.2615128750904061,-0.03849831037482554,0.8500000000000001,0.25
1.402361066491773,0.15954055624511515,0.2550375894236865,-0.038449882572134,0.8500000000000001,0.25
1.4007717890802325,0.15412626695363335,0.2518002997686226,-0.038426818469191604,0.8500000000000001,0.25
1.397514885736312,0.142784541615653,0.2453263834950985,-0.03838519593760714,0.8500000000000001,0.25
1.395840916671927,0.13685688796495127,0.24208963324046873,-0.038365729366158785,0.8500000000000001,0.25
1.3923859227086046,0.12449020028987998,0.23561661433800696,-0.03833012365721422,0.8500000000000001,0.2
1.390598520179686,0.11805217644261018,0.2323803640258073,-0.0383143260899832,0.8500000000000001,0.2
1.3865055781288036,0.10960096614400988,0.22897091775840117,-0.039268034667545804,0.8500000000000001,0.2
1.3842761759666948,0.1069329587309393,0.22834353521869866,-0.03944262822722,0.8500000000000001,0.2
1.3796858079134964,0.10224157738538865,0.22756148831149536,-0.03964394313829467,0.8500000000000001,0.2
1.3773452210314845,0.10000308694680039,0.227245774150028,-0.03972036994807593,0.8500000000000001,0.2
1.3749788685064197,0.09779128358849516,0.22694411855184815,-0.039790075138652625,0.8500000000000001,0.2
1.370173050278661,0.09341317733454416,0.2263541145702317,-0.03991623782977416,0.8500000000000001,0.2
1.3677345952430864,0.09124196571491502,0.226060811932548,-0.039974159069080306,0.8500000000000001,0.2
1.3627881705411022,0.08693255004774655,0.22547414162769397,-0.040080951796961584,0.8500000000000001,0.2
1.3602807245131754,0.08479439702754725,0.22518043973481094,-0.040129585637829424,0.8500000000000001,0.2
1.3551985286453094,0.08055283263790412,0.22459215938782418,-0.040220256036080704,0.8500000000000001,0.2
1.3526242579846486,0.07844974027544672,0.22429758242679187,-0.04026188607910397,0.8500000000000001,0.2
1.3474105221251027,0.07428068995349114,0.22370762087889418,-0.04033830548664907,0.8500000000000001,0.2
1.3447715293604512,0.07221497622599594,0.2234122619011749,-0.04037532620489914,0.8500000000000001,0.2
1.3394303622776234,0.06812309626939461,0.22282085783291739,-0.040438653423189086,0.8500000000000001,0.2
1.3367286536536338,0.06609701551368236,0.22252482603258628,-0.04046894705953652,0.8500000000000001,0.2
1.331264066168604,0.0620868362723699,0.22193219531636466,-0.0405245612681675,0.8500000000000001,0.2
1.3285016452998322,0.060102553470748825,0.2216355927080642,-0.04054966375696556,0.8,0.2
1.3229176278744015,0.05617748222034719,0.22104188012225756,-0.04059651678090859,0.8,0.2
1.3200973747485365,0.0542375566830362,0.22074509625097094,-0.040501413009820464,0.8,0.2
1.3144312802123126,0.05041523121305836,0.22015942339898542,-0.039946398609636447,0.8,0.2
1.3115871613353178,0.04853250811296885,0.21986988650697104,-0.03968928670987415,0.8,0.2
1.3058752181578714,0.0448237558326643,0.21929625390859475,-0.0392126538999622,0.8,0.2
1.303006826226866,0.04299722245028257,0.21901188251154413,-0.03899243103882433,0.8,0.2
1.2972438994937492,0.03940092338141982,0.21844757943323678,-0.03858464050429644,0.8,0.2
1.294348942399649,0.03763118077517288,0.21816750819588804,-0.03839575635238934,0.8,0.2
1.2885311186270487,0.03414848114204925,0.21761112149863004,-0.038046162662638494,0.8,0.2
1.2856079468694348,0.03243570435577615,0.21733468184033433,-0.0378848965908527,0.8,0.2
1.2797324744110985,0.029067549003846182,0.2167850318684017,-0.03758537291816455,0.8,0.2
1.2767799697330835,0.027412742518377484,0.21651172008581354,-0.037447229991343756,0.8,0.2
1.270845078102568,0.02416141230788828,0.21596783754172222,-0.037190219336827424,0.8,0.2
1.2678625955874179,0.02256531978103843,0.2156971955437661,-0.037072287666329196,0.8,0.2
1.2618674188741947,0.01943328440260026,0.2151582893517756,-0.03685306350487849,0.8,0.2
1.258854719012284,0.017897081745523864,0.2148899317713593,-0.03675171599572069,0.8,0.15000000000000002
1.2527742387711371,0.016247935209062304,0.2152758364516525,-0.037069262962181826,0.8,0.15000000000000002
1.2496666901483002,0.01795498709512134,0.21716902145970485,-0.03721550141848895,0.8,0.15000000000000002
1.2433838308277065,0.023296452990317983,0.22205128016482822,-0.0372929494285803,0.8,0.15000000000000002
1.2402188404152266,0.02645548525625867,0.2246686761157879,-0.03729820826958452,0.8,0.15000000000000002
1.2338531490695797,0.033431170358734,0.2299849829818581,-0.03729363834397237,0.8,0.15000000000000002
1.2306554639848417,0.0372177524000561,0.23265603557389725,-0.03729084409683514,0.8,0.15000000000000002
1.2242370206489197,0.045368115587058236,0.23800401242077363,-0.037283158528880866,0.8,0.15000000000000002
1.2210187932052423,0.04972963586758565,0.2406789642134739,-0.03727979978069951,0.8,0.15000000000000002
1.2145705362936274,0.05902394673482157,0.2460293120949617,-0.03727391170537975,0.8,0.15000000000000002
1.2113430000772167,0.06395642173525366,0.24870456487046222,-0.03727100470683342,0.8,0.2
1.2049718489052097,0.07316345013195968,0.2532362599158058,-0.03647496020827656,0.8,0.2
1.2019586412532168,0.07561444354938744,0.25378861066970604,-0.036182066143692015,0.8,0.2
1.1990085253563592,0.07753434583907391,0.2538700526546782,-0.03603754181111718,0.8,0.2
1.1932223395846655,0.0809027906793709,0.2535505672788503,-0.035882159037227135,0.8,0.2
1.187550991600778,0.08417180771962163,0.2530632773793834,-0.03577473098541284,0.8,0.2
1.184754736295899,0.08582032822817816,0.25280662110942975,-0.03572747980839064,0.8,0.2
1.179239945429768,0.0891640183641951,0.2522880222774061,-0.03564019474862423,0.75,0.2
1.1765214667928272,0.09086041242341558,0.25202817442430625,-0.03559995723524012,0.75,0.2
1.17382903703106,0.09257324259371852,0.251768414255238,-0.03556161461034035,0.75,0.2
1.1685349351578105,0.09605150540641688,0.2512530595159206,-0.03504501171924468,0.7,0.2
1.1659448521169888,0.09781923778349112,0.2509999083312541,-0.03470401538582224,0.6499999999999999,0.2
1.160901781998356,0.10141620233134241,0.2505071825108476,-0.03345806827526854,0.6499999999999999,0.2
1.1584561134767353,0.10324639778408172,0.2502684957369937,-0.032727812750317664,0.6499999999999999,0.2
1.153744616859191,0.1069748474938856,0.2498121092855773,-0.03093788154559518,0.6499999999999999,0.2
1.1514787313491364,0.10887184591164431,0.2495935588012983,-0.030098088577615423,0.6499999999999999,0.2
1.1471204497310326,0.1127273672943512,0.2491739793143083,-0.028521365163644896,0.6499999999999999,0.2
1.145025646242878,0.1146848211909497,0.24897241160799832,-0.027781648788777646,0.6499999999999999,0.2
1.1409992037954182,0.11865484057012832,0.24858450541600097,-0.026393093468110917,0.6499999999999999,0.2
1.139065468752671,0.12066635082484665,0.24839774799417114,-0.025741591519169438,0.6499999999999999,0.2
1.1353520295293038,0.12473972138430797,0.24803762136679497,-0.02451902440550824,0.6499999999999999,0.2
1.1335705231646502,0.12680007702861995,0.24786387707260604,-0.02394564571500113,0.6499999999999999,0.2
1.1301536117759436,0.13096587905801532,0.24752816397062216,-0.02286898657637515,0.6499999999999999,0.2
1.1285165791913363,0.13307041911998796,0.24736586924396275,-0.022363820299708737,0.6499999999999999,0.2
1.1253817237116936,0.1373186185905563,0.24705162083718546,-0.02141603562861394,0.6499999999999999,0.2
1.1238824379169097,0.13946182953877123,0.2468993828159728,-0.020971379082260322,0.6499999999999999,0.2
1.1210169236423897,0.14378311755660678,0.2466040160670338,-0.020136794454899354,0.6499999999999999,0.2
1.1196494462655824,0.14596024577417704,0.24646063213405378,-0.01974512483876989,0.6499999999999999,0.2
1.117042067152249,0.15034587416614795,0.24618187996944307,-0.019010208484975033,0.6499999999999999,0.2
1.1158011002194324,0.15255313821284994,0.24604628983753712,-0.01866530675905409,0.6499999999999999,0.2
1.113441971148191,0.15699484736850458,0.24578214658635228,-0.018018393819235312,0.6499999999999999,0.25
1.1123228875434583,0.1592279813806252,0.24565340296454424,-0.017714744715902286,0.6499999999999999,0.25
1.1107444179850814,0.1598565728046311,0.2425700705191854,-0.01580733857274974,0.6499999999999999,0.25
1.1102206156656418,0.15862655861323574,0.23989662230632808,-0.015352479398466068,0.6499999999999999,0.25
1.1093679011147002,0.15515633915822327,0.23406674678129008,-0.01464170952542676,0.6499999999999999,0.25
1.1090031490431898,0.15308601468578154,0.23107633960108181,-0.014328937179799217,0.6499999999999999,0.25
1.1083587088012217,0.14838830610962359,0.22506597627542935,-0.013748608779310612,0.6499999999999999,0.25
1.108069827949785,0.1457712632094782,0.22205852336011334,-0.013477530906088164,0.6499999999999999,0.25
1.107539433651269,0.1400071559523479,0.21604788353399806,-0.012969079855089882,0.6499999999999999,0.25
1.1072907035329511,0.13686012378350634,0.2130454386961595,-0.012730806436720421,0.6499999999999999,0.25
1.106808442000186,0.13003573718734412,0.20704659715895277,-0.01228336254120821,0.6499999999999999,0.25
1.1065679081305408,0.1263581060155178,0.20405009579242867,-0.012073677272527394,0.6499999999999999,0.25
1.1060706744088715,0.11847136356211291,0.1980625281464491,-0.011679895774906468,0.6499999999999999,0.25
1.1058070502483734,0.1142624638047423,0.1950713559536183,-0.011495159502264984,0.6499999999999999,0.25
1.1055288685683409,0.10987635673805844,0.1920817828362963,-0.01131816281338005,0.6499999999999999,0.25
1.1049151320118584,0.10057384650478711,0.18610729246158275,-0.010986301291880274,0.6499999999999999,0.25
1.1045728055008388,0.09565775477975011,0.18312223420012516,-0.010830403318271564,0.6499999999999999,0.25
1.103800428760141,0.08529699417519059,0.1771561319876652,-0.010538241158606576,0.6499999999999999,0.25
1.103363685767095,0.07985318770288938,0.17417500078868564,-0.010401220404697042,0.5999999999999999,0.25
1.102372527429282,0.06844057351732934,0.1682162768858756,-0.010143857103293685,0.5999999999999999,0.25
1.1018126945971585,0.06247307546934573,0.16523894496235664,-0.009870277833726071,0.5499999999999998,0.25
1.1005877210913766,0.05003240364989541,0.1592986178103829,-0.008849024482863177,0.5499999999999998,0.25
1.0999246938189131,0.04356243055051885,0.15633727843981587,-0.008003490532652702,0.49999999999999983,0.25
1.098515991167285,0.03013564519377833,0.15043941084079632,-0.00613632871436165,0.49999999999999983,0.2
1.097776072642684,0.023183429339528768,0.14750556903926867,-0.004902857496263957,0.49999999999999983,0.2
1.0970141915080227,0.016074637849890407,0.14458275766226114,-0.0037094938060187044,0.49999999999999983,0.15000000000000002
1.0953411158593325,0.0052268627370468486,0.14166897557518351,-0.002440061523041548,0.49999999999999983,0.15000000000000002
1.0944610761080573,0.001264749817152488,0.14144248629685036,-0.0018883802758566937,0.49999999999999983,0.10000000000000002
1.0926369686442103,-0.0011584928718954696,0.14528169921735704,-0.0005343571854561358,0.49999999999999983,0.10000000000000002
1.0917166862587873,-0.00017325615620751575,0.14878442144538823,-6.969475736795516e-05,0.49999999999999983,0.10000000000000002
1.0898352426462,0.006619619880211895,0.15908156442077753,0.0012082347067061683,0.49999999999999983,0.10000000000000002
1.0888763421427918,0.011038695267266785,0.164695549088472,0.00187935602002276,0.49999999999999983,0.10000000000000002
1.0869166347484007,0.021171889029111643,0.1761493641876568,0.003179411352950856,0.49999999999999983,0.10000000000000002
1.0859141038713123,0.026814284619628783,0.18191478215588316,0.003801423109628166,0.49999999999999983,0.10000000000000002
1.0848953895476656,0.032824994963324874,0.18768912126672493,0.0044038190325217386,0.49999999999999983,0.10000000000000002
1.0828063213950339,0.0459390281414816,0.19925041542863908,0.00555144595562207,0.49999999999999983,0.10000000000000002
1.0817344564312525,0.05303966811965593,0.20503496568849366,0.006098002504427935,0.49999999999999983,0.10000000000000002
1.0795324092880172,0.06832547962088016,0.21660956160566552,0.00713811286882704,0.49999999999999983,0.10000000000000002
1.0784008260547355,0.07650974091578978,0.22239937617863825,0.00763320997713679,0.49999999999999983,0.10000000000000002
1.0760731883980212,0.09395910782209733,0.23398360720739986,0.008576211748732687,0.49999999999999983,0.10000000000000002
1.074875850942777,0.10322349774937614,0.2397778625355408,0.009025180419791168,0.49999999999999983,0.10000000000000002
1.0736553450306685,0.11284718153489233,0.24557347578802785,0.009459627445657759,0.49999999999999983,0.10000000000000002
1.0711424901519242,0.13317045514601517,0.2571689488197571,0.010286845144958923,0.49999999999999983,0.10000000000000002
1.0698489948903886,0.14386944029048146,0.2629685009532246,0.01068029222181055,0.49999999999999983,0.10000000000000002
1.0671851918462514,0.1663395302913677,0.2745715199163479,0.011430431695015564,0.49999999999999983,0.10000000000000002
1.065813853501448,0.17810988549863496,0.28037474406226953,0.011787007800230676,0.49999999999999983,0.10000000000000002
1.0644155596371165,0.19023651107507453,0.2861790706150802,0.012132749852912683,0.49999999999999983,0.15000000000000002
1.0615362262220196,0.21555673407148654,0.2977908390722295,0.012790400502865173,0.49999999999999983,0.15000000000000002
1.0600799174608766,0.228619403316652,0.3035342415969949,0.013950460516299668,0.49999999999999983,0.15000000000000002
1.0580789008804494,0.2510235105688055,0.3112829917672493,0.014605957461001351,0.49999999999999983,0.15000000000000002
1.057293336406697,0.2618071812100793,0.31448018606406236,0.014967944708791148,0.49999999999999983,0.15000000000000002
1.056581375308156,0.2726506267235143,0.31754521409481234,0.01529514173972446,0.49999999999999983,0.15000000000000002
1.0553191952123344,0.29476533918963443,0.3235416229613433,0.01589893899952899,0.49999999999999983,0.15000000000000002
1.0547588378798665,0.30607715421799836,0.32651965868149274,0.01618368960384764,0.49999999999999983,0.15000000000000002
1.0537739894359992,0.3292353567089118,0.3324695021281851,0.01672484423052545,0.49999999999999983,0.2
1.053389342406851,0.340922652576466,0.33535400230452334,0.017723224415526317,0.49999999999999983,0.2
1.0541830035235575,0.36009499791500277,0.337398311513339,0.018615072177591507,0.49999999999999983,0.2
1.0549657061906326,0.36901337596889044,0.3377668818170938,0.018960592815397304,0.49999999999999983,0.25
1.0570015227691216,0.38641697229566496,0.33811985337152367,0.02045393534285611,0.49999999999999983,0.25
1.0588449294252449,0.39309508316242947,0.3367088903596454,0.02100478566302333,0.49999999999999983,0.3
1.0640009499595176,0.40302820533309885,0.33137677939642907,0.023036914597165614,0.49999999999999983,0.3
1.0676216263345528,0.40532606762692763,0.3267947765544456,0.023838922076668156,0.49999999999999983,0.3
1.0716162933917783,0.40669775167308814,0.3216870385490374,0.02439267980892379,0.49999999999999983,0.3
1.080262173605548,0.4077330612864897,0.31092497622537313,0.02525203139730614,0.49999999999999983,0.3
1.0848179911273461,0.40757325695006796,0.30545744273789543,0.02563336918880621,0.49999999999999983,0.3
1.0942922348991329,0.40601393891718257,0.2944893766809272,0.02634717229697947,0.49999999999999983,0.3
1.099186420999991,0.40462224954223663,0.28900357541335686,0.026685625619355724,0.49999999999999983,0.3
1.1092382200522588,0.40061472435270307,0.27803940040768843,0.027328693224049738,0.49999999999999983,0.3
1.1143771969914908,0.3979956007946727,0.27256183701984843,0.027635273428235685,0.49999999999999983,0.3
1.124834833963628,0.39151981629490945,0.2616162444320119,0.028215775124452946,0.49999999999999983,0.3
1.1301351444117604,0.38766024349832995,0.25614802451193824,0.028493638509706987,0.49999999999999983,0.3
1.1354707683139487,0.38338490910674294,0.2506827993466768,0.028759917829316528,0.49999999999999983,0.3
1.1462112410025098,0.3735828657535153,0.23976083922374147,0.02926919448510068,0.49999999999999983,0.3
1.151597733687245,0.3680545561191461,0.23430386974591666,0.029511094334024213,0.49999999999999983,0.3
1.1623567479925216,0.35574259062004304,0.22339790847088292,0.02997152938859493,0.49999999999999983,0.3
1.1677110058102245,0.3489581459713744,0.21794865267592944,0.0301908774886559,0.49999999999999983,0.3
1.1783231770768083,0.3341323949585218,0.2070571561745128,0.03060722321826259,0.49999999999999983,0.3
1.1835628535247622,0.3260913443856348,0.2016146894338211,0.030805494844280412,0.49999999999999983,0.3
1.1938635821260997,0.30875596686650014,0.19073606793523068,0.03118323574522819,0.49999999999999983,0.3
1.1989063923754297,0.2994633624897638,0.18529981758157243,0.03136273251502275,0.49999999999999983,0.3
1.2087316345983647,0.27963311800424134,0.17443307840764,0.03170457142949856,0.49999999999999983,0.3
1.2134960768722982,0.26909769443525017,0.16900238504646747,0.031866707596002186,0.49999999999999983,0.3
1.21814966573166,0.2581510653527974,0.16357349200730842,0.03202313363720566,0.49999999999999983,0.3
1.2270887876928875,0.23502977347426718,0.1527206238720864,0.03232273661612073,0.49999999999999983,0.3
1.2313564900941485,0.22285913092492646,0.14729659461716993,0.032464521947798586,0.49999999999999983,0.3
1.2394439980121565,0.19730868502211615,0.1364531181312869,0.03273484643261071,0.49999999999999983,0.3
1.2432462811900775,0.1839336525609278,0.13103358711018231,0.03286332421542282,0.49999999999999983,0.25
1.2468760127119032,0.1701619307259483,0.12561542342880783,0.03298809150682369,0.49999999999999983,0.25
1.2534597176344424,0.14258716248028688,0.11556133418138559,0.03248138210652973,0.49999999999999983,0.2
1.2562309625578827,0.13054756870462822,0.11211304377296538,0.032190130171219966,0.49999999999999983,0.2
1.26092872824149,0.11012344000434497,0.10826231272059428,0.0312169020162274,0.49999999999999983,0.15000000000000002
1.2629012805414763,0.10195703450884655,0.10792107852847932,0.030965805199674623,0.49999999999999983,0.10000000000000002
1.266182396533392,0.09076256761849341,0.1108463214327422,0.029972316544469857,0.49999999999999983,0.10000000000000002
1.2675792139184385,0.08725351926604373,0.11368716472391305,0.029549032335387526,0.49999999999999983,0.10000000000000002
1.2687453827675859,0.08645264577052629,0.11829800423626269,0.029162764360396665,0.49999999999999983,0.05000000000000002
1.2706710887448607,0.08950139549490177,0.1301774058488021,0.028544591350152304,0.49999999999999983,0.05000000000000002
1.271361143628131,0.0943725863935228,0.13805717298333486,0.028248852048160744,0.49999999999999983,0.05000000000000002
1.2724086705487498,0.10707175539348315,0.1549166192413478,0.02778446844427762,0.49999999999999983,0.05000000000000002
1.2727909359083682,0.11442668176072157,0.16352454958637108,0.027571818436372464,0.49999999999999983,0.05000000000000002
1.2732813876820126,0.1308269032923217,0.18082602015115,0.027169598111697724,0.49999999999999983,0.05000000000000002
1.273386597718624,0.13983888089602933,0.18949085107440244,0.026978564959841078,0.49999999999999983,0.05000000000000002
1.2733049211894112,0.1594606588022711,0.2068265531959088,0.02661519414623137,0.49999999999999983,0.05000000000000002
1.2731125868735804,0.17006661580899932,0.21549539964645104,0.026442726014333395,0.49999999999999983,0.10000000000000002
1.272815520527976,0.18120109682086455,0.22416417960562662,0.0262746204921791,0.49999999999999983,0.10000000000000002
1.2722515597176498,0.20256495541531483,0.23988877724608493,0.026454402523296228,0.49999999999999983,0.10000000000000002
1.2721541175006805,0.21183354479613728,0.2462816613368224,0.02639020800236147,0.49999999999999983,0.10000000000000002
1.2719467001271565,0.2305308413215172,0.258312299051245,0.02617652316138286,0.49999999999999983,0.10000000000000002
1.2717888523175929,0.2402685012661962,0.26420292442872717,0.02606137526556207,0.49999999999999983,0.10000000000000002
1.271327626041975,0.2607367031830712,0.2759237707995288,0.025838708683910472,0.49999999999999983,0.10000000000000002
1.2710202184218398,0.27148802226983676,0.2817740443795358,0.02573162040007637,0.49999999999999983,0.15000000000000002
1.2706607004692294,0.28258849544524567,0.28762201488656647,0.025628089030619527,0.49999999999999983,0.15000000000000002
1.2703148256290921,0.30333436045770257,0.2976745313316549,0.026094727164083453,0.49999999999999983,0.15000000000000002
1.2705672296982227,0.31204065283811,0.3012411599248903,0.026147922569879967,0.49999999999999983,0.15000000000000002
1.2713181634011606,0.3290758015875714,0.30762040146845915,0.026106547816153736,0.49999999999999983,0.15000000000000002
1.271744352413279,0.33771547402453106,0.31068544827953914,0.026066022897346608,0.49999999999999983,0.15000000000000002
1.27264580834802,0.3554562888768857,0.3167552379659202,0.025981448093590265,0.49999999999999983,0.15000000000000002
1.2731168666606538,0.36457823865227607,0.3197801402381075,0.025940529864656003,0.49999999999999983,0.15000000000000002
1.2736013409047124,0.3738722424470716,0.32280294628966155,0.025900230731821017,0.49999999999999983,0.2
1.2746131340480216,0.3929793985186111,0.3288458727591037,0.02582414960824697,0.49999999999999983,0.2
1.2751422631958627,0.4027923107502927,0.3318667210365638,0.025787814488097638,0.49999999999999983,0.2
1.2774781494656708,0.4187201221208557,0.3351513179910166,0.02676523280764842,0.49999999999999983,0.2
1.2791939289488845,0.4252543836979133,0.33569870204237784,0.02687721950707389,0.49999999999999983,0.2
1.2830253695558167,0.4377265095448191,0.33630842948889605,0.02697568910031678,0.49999999999999983,0.2
1.2850733424195964,0.44385771238456395,0.3365336082744981,0.027006592744087232,0.49999999999999983,0.2
1.287193608444307,0.44996040581040103,0.33674316809921834,0.02703365004866476,0.49999999999999983,0.2
1.291637119020323,0.4621105374422944,0.33714642110174387,0.027082340690044004,0.49999999999999983,0.2
1.2939576217558837,0.46816222518855716,0.3373456227372722,0.027105930992617377,0.49999999999999983,0.2
1.2987931517494686,0.48021985869668743,0.3377432289331177,0.027149278796375853,0.49999999999999983,0.25
1.3013621219645093,0.4860381341013989,0.337847796498405,0.028133877940626606,0.49999999999999983,0.25
1.3047689135591813,0.48956964049948026,0.33645310706641096,0.028357365070412976,0.49999999999999983,0.25
1.312687336053339,0.4938175102484363,0.33197131391509793,0.02879259861650829,0.49999999999999983,0.25
1.3169104192679775,0.49528251908737086,0.3294492500297028,0.02891294973119729,0.49999999999999983,0.25
1.3256544169046458,0.4974143287241865,0.3242699886928615,0.029108816431934192,0.49999999999999983,0.25
1.3301454116236444,0.49813180428492193,0.32165891592827234,0.02919732392761265,0.49999999999999983,0.25
1.3393305390367198,0.4989021802061358,0.3164281205684163,0.02936425052614755,0.49999999999999983,0.25
1.344015686881149,0.49895687402157257,0.3138120106672879,0.0294427378861295,0.49999999999999983,0.25
1.35355143052684,0.4984041584151375,0.30858107192504836,0.029592312599152848,0.49999999999999983,0.25
1.3583947294104621,0.4977950008710378,0.3059664509452893,0.02966414880862689,0.49999999999999983,0.25
1.3682138579239644,0.4959073828115952,0.3007390141149009,0.029800269007853375,0.49999999999999983,0.25
1.3731824032985926,0.49462739445158893,0.2981261597778295,0.02986473284896829,0.49999999999999983,0.25
1.3832187866225611,0.49139300229905125,0.29290226342985415,0.02998772408124939,0.49999999999999983,0.25
1.3882794061013886,0.48943713540341977,0.2902911375352073,0.0300462729098101,0.49999999999999983,0.25
1.3984671112103835,0.48484564868708313,0.285070432684269,0.030157671957165677,0.49999999999999983,0.25
1.4035870235481436,0.4822086328885079,0.2824607430956818,0.030210549722163416,0.49999999999999983,0.25
1.4138598210410789,0.47625265739623684,0.2772428925371764,0.0303105563917605,0.49999999999999983,0.25
1.4190055322580861,0.47293259542589683,0.27463462395556015,0.030358877651923244,0.49999999999999983,0.25
1.4292972095436285,0.4656072620609123,0.26941929419552957,0.03045084357708716,0.49999999999999983,0.25
1.434435730512459,0.4616020356181162,0.26681223811096966,0.030494147864440935,0.49999999999999983,0.25
1.444679572135774,0.45290688637833454,0.2615993062474442,0.030576805766819426,0.49999999999999983,0.25
1.4497775920524005,0.4482169286723343,0.25899339624153805,0.03061595165771025,0.49999999999999983,0.25
1.4599074379928172,0.4381530040721893,0.2537825933944997,0.03069083723886945,0.49999999999999983,0.25
1.4649318942032163,0.43277960990991265,0.2511777101686239,0.030726592580139878,0.49999999999999983,0.25
1.4748816656834165,0.42135114271493634,0.24596885114082068,0.03079393451176271,0.49999999999999983,0.25
1.4797996779292113,0.4152968510656883,0.24336485786831208,0.030826429277854617,0.49999999999999983,0.25
1.4895035327199018,0.4025113141109046,0.2381578014722081,0.030888032147051714,0.49999999999999983,0.25
1.4942822486646672,0.3957806476494967,0.23555464700132478,0.030917108030731777,0.49999999999999983,0.25
1.5036750549336753,0.38164713114088933,0.2303491203023631,0.030972855186159665,0.49999999999999983,0.25
1.5082820277280446,0.3742453392715581,0.22774668078695215,0.03099983578822152,0.49999999999999983,0.25
1.5172990699256874,0.3587760556370738,0.2225424711273547,0.031049605106274303,0.49999999999999983,0.25
1.5217019505060394,0.3507105732088067,0.21994072801932152,0.03107357526751664,0.49999999999999983,0.25
1.5302787262693691,0.3339225891089109,0.21473790546924088,0.031118826957645007,0.49999999999999983,0.25
1.5344456352927276,0.325201864230281,0.21213678728481122,0.03114079719094942,0.49999999999999983,0.25
1.542518992723946,0.307112451278053,0.2069351240206645,0.03118205163073573,0.49999999999999983,0.25
1.5464184308223983,0.29774645044872566,0.2043346017024601,0.0312016396325554,0.49999999999999983,0.25
1.5539258041471515,0.2783768870061107,0.1991340135445343,0.031238795308425882,0.49999999999999983,0.25
1.5575268493589896,0.26837623987267484,0.19653397080218848,0.03125748217738389,0.49999999999999983,0.2
1.5644067747579056,0.2477498022910976,0.19133432846588505,0.03129043885422278,0.49999999999999983,0.2
1.5674556394033325,0.2387052556215067,0.1896179780788172,0.030673118661981524,0.49999999999999983,0.2
1.5701135705366298,0.23153706784884426,0.1890572720311985,0.0303785048614591,0.49999999999999983,0.2
1.5749309626009584,0.21883294465246628,0.18901045298278873,0.030103563572718484,0.49999999999999983,0.2
1.577185174652477,0.21272660411866814,0.18916660212812397,0.030016866023026,0.49999999999999983,0.2
1.5814523616666571,0.2006003109955637,0.18956494527631484,0.02986887424150586,0.49999999999999983,0.2
1.5834721418004265,0.19454020460583354,0.18977775139797792,0.029801095454891513,0.49999999999999983,0.2
1.5872888138908836,0.18239981309324874,0.1902088585972117,0.029672713224957237,0.49999999999999983,0.2
1.5890861087143329,0.1763184593311375,0.19042486647227586,0.029611779582977116,0.49999999999999983,0.2
1.5908094418498826,0.1702302885879003,0.19064066530849688,0.02955272434002798,0.49999999999999983,0.2
1.5940344264726722,0.15803498568540864,0.1910712703518085,0.02944113008875404,0.49999999999999983,0.2
1.5955360553661464,0.15192987121016557,0.19128601730289807,0.02938712813591393,0.49999999999999983,0.2
1.5983177286357673,0.13970825243127882,0.1917144213066022,0.02928540521284395,0.49999999999999983,0.2
1.599597816285104,0.13359353077118882,0.19192809292251,0.029237247969225777,0.49999999999999983,0.2
1.6019367010226433,0.12136030102677983,0.192354421399195,0.02914499181561614,0.49999999999999983,0.2
1.602995599148008,0.11524330792396069,0.19256711177715458,0.02910094150215281,0.49999999999999983,0.2
1.604892580123917,0.10301294916497257,0.19299157502021824,0.029017652881007105,0.49999999999999983,0.2
1.6057308145345013,0.09690119001593338,0.1932033709595702,0.028977872003406624,0.49999999999999983,0.2
