1.0330547342579637,0.20662438220379498,0.291344890022045,-0.00672801532440559,0.6499999999999999,0.5499999999999999
1.0360658550770763,0.1883582563213117,0.2809799641286874,-0.006841107154384574,0.6499999999999999,0.49999999999999994
1.0403906694373268,0.15304020320351736,0.26292836183304846,-0.00751663993612528,0.6499999999999999,0.49999999999999994
1.0416314302530891,0.13687222752853814,0.2558490082328042,-0.00787680604983354,0.6499999999999999,0.49999999999999994
1.0424321096056721,0.12098061516074902,0.24940022231293568,-0.007730743390447659,0.6499999999999999,0.44999999999999996
1.0429278197303458,0.08877321267669205,0.23719889616878875,-0.007043037308172462,0.6499999999999999,0.44999999999999996
1.0425536721320698,0.07319143606652603,0.23195759949595196,-0.008102348654477565,0.6499999999999999,0.39999999999999997
1.040495204339415,0.045223342437317855,0.22476251889668486,-0.009645649943036627,0.6499999999999999,0.35
1.0388671430497678,0.033431865412882567,0.22320357554016468,-0.010142821489715681,0.6499999999999999,0.35
1.0347018758493147,0.012989107207302245,0.22279683675132533,-0.011784851401834162,0.6499999999999999,0.3
1.032195303995823,0.00516324411187224,0.22452672040102728,-0.01246550595128637,0.6499999999999999,0.3
1.0265304860320068,-0.0062069687181976925,0.23115532742425593,-0.014319961733312736,0.6499999999999999,0.25
1.0234090486937881,-0.009553143353197424,0.2361124554526186,-0.014886502688185699,0.6499999999999999,0.25
1.0166683057147277,-0.010708237842972507,0.2497317711047069,-0.01684527406054226,0.6499999999999999,0.2
1.0130722094458,-0.008932176119431404,0.25795252104950395,-0.0178643603838875,0.6499999999999999,0.2
1.0053901263777256,0.0013390110257211507,0.27867978064318955,-0.019209509935027125,0.6499999999999999,0.2
1.0013047037656269,0.008238132271408185,0.28974255907091795,-0.019710181642048408,0.6499999999999999,0.2
0.9926473089860565,0.024459234316359525,0.312205290028587,-0.020572039486364435,0.6499999999999999,0.2
0.9880776455886606,0.03367180152999016,0.32348907512594494,-0.020966239693443578,0.6499999999999999,0.2
0.9784637129740039,0.054223549383620735,0.346075406344283,-0.021700019622038713,0.6499999999999999,0.25
0.9734224839147425,0.06555349251846561,0.3573690864450887,-0.022044048676525207,0.6499999999999999,0.25
0.9630857115059338,0.08823027856306889,0.378258923251777,-0.02149542542060434,0.6499999999999999,0.3
0.957902042498391,0.09886960099789854,0.38722153440286977,-0.02153862800727202,0.6499999999999999,0.3
0.9478121648559846,0.1176957266648081,0.40154775118120023,-0.020217357491109977,0.6499999999999999,0.3
0.9428847382482077,0.126511543060345,0.4074767085333475,-0.02017275329879853,0.6499999999999999,0.3
0.9330868229066173,0.14485133946753842,0.41877524382886167,-0.020279971113956075,0.6499999999999999,0.3
0.9282060091553787,0.15453502665658495,0.42433187910104575,-0.020356881215469302,0.6499999999999999,0.3
0.9184906079798372,0.17503449727205017,0.43539898241890107,-0.02051085712336631,0.6499999999999999,0.35
0.913664564346409,0.18585859511870267,0.44092420007331157,-0.020584805553907293,0.6499999999999999,0.35
0.9042903556695215,0.20776804411865646,0.45122137647844784,-0.01945633177083006,0.6499999999999999,0.39999999999999997
0.9000852099453365,0.21745875558885433,0.4547273321030194,-0.018970364231268855,0.6499999999999999,0.39999999999999997
0.8961273879813169,0.22678406693022718,0.45764443555448064,-0.017460822343410953,0.6499999999999999,0.39999999999999997
0.8897121503829097,0.241565598368547,0.4592520759550185,-0.01619260840057901,0.6499999999999999,0.39999999999999997
0.886937120485812,0.24838238082488265,0.45929298948747244,-0.01588097498572183,0.6499999999999999,0.39999999999999997
0.8819794521653699,0.2618787752933002,0.45900349243311434,-0.015463371172758311,0.6499999999999999,0.39999999999999997
0.8797678335765455,0.2686499208158894,0.45879974188408035,-0.015287898169647818,0.6499999999999999,0.44999999999999996
0.8758590090466516,0.28228658072266816,0.4583689250332177,-0.014971322954898225,0.6499999999999999,0.44999999999999996
0.8741602824925737,0.2891508061238245,0.458151867808811,-0.014822866775797028,0.6499999999999999,0.44999999999999996
0.8718773947402183,0.30105156710748787,0.45603816457729307,-0.012424955726350717,0.6499999999999999,0.44999999999999996
0.8715165831787373,0.30541710833180225,0.4535214381897523,-0.011797047756866963,0.6499999999999999,0.44999999999999996
0.8716406794471833,0.3130298785826985,0.44771482873731605,-0.011069801564936865,0.6499999999999999,0.44999999999999996
0.8720322648995333,0.31648542917928374,0.44468624547214475,-0.010794579858395714,0.6499999999999999,0.49999999999999994
0.8733852529572583,0.32281830075460904,0.4385764810533317,-0.010302816466662978,0.6499999999999999,0.49999999999999994
0.8746268691473748,0.32482139671001414,0.43475248379132525,-0.008230873704795583,0.6499999999999999,0.49999999999999994
0.8787187504789381,0.3249504579127685,0.4241465772442474,-0.006595546191275892,0.6499999999999999,0.5499999999999999
0.8811667613175628,0.32405381992762017,0.4183926105262272,-0.006132224293115218,0.6499999999999999,0.5499999999999999
0.886845426523438,0.32003565405183515,0.4059286443376262,-0.003377864215758253,0.6499999999999999,0.5499999999999999
0.8904723769413831,0.31560043307130264,0.3980594615998543,-0.002146938039092383,0.6499999999999999,0.5499999999999999
0.8983799065649832,0.3038561792236457,0.3811113328441693,-0.0007631324949284313,0.6499999999999999,0.5499999999999999
0.9024626695747775,0.29690167670810524,0.37243966590452127,-0.00025238833466079136,0.6499999999999999,0.5499999999999999
0.9106538018477732,0.28107168964476076,0.355017431525638,0.0006462842911532096,0.6499999999999999,0.5499999999999999
0.914701492731432,0.2722204127996099,0.3463015692114908,0.001060118724167891,0.6499999999999999,0.5499999999999999
0.922570897554488,0.25266281508201,0.3288852127389741,0.0018299339262266567,0.6499999999999999,0.5499999999999999
0.926342985562098,0.2419609598832457,0.32018694712200624,0.0021893906276233555,0.6499999999999999,0.5499999999999999
0.933439960144523,0.21872563875963635,0.3028110916728357,0.0028557650558318493,0.6499999999999999,0.49999999999999994
0.9367168135385027,0.2061991756909018,0.29413292480288256,0.0031770963020392173,0.6499999999999999,0.44999999999999996
0.9397806084591978,0.19307364890714432,0.28546112627195175,0.0034774149723502124,0.6499999999999999,0.44999999999999996
0.9439351827454107,0.17193619377392447,0.27405242171459765,-0.0003174674531654098,0.6499999999999999,0.39999999999999997
0.9452655994852514,0.16326344287277753,0.27054385198352415,-0.002070303677949248,0.6499999999999999,0.39999999999999997
0.946571540245371,0.15027161822051052,0.2680293482627021,-0.003582177961967803,0.6499999999999999,0.39999999999999997
0.9468519922435339,0.14457313988165,0.26764631833842323,-0.00405805154543315,0.6499999999999999,0.39999999999999997
0.9469317411439075,0.13351309334043984,0.26731371106020996,-0.004748696713549494,0.6499999999999999,0.39999999999999997
0.9467577690754156,0.12802993517022052,0.2672156817708917,-0.005043086224502336,0.6499999999999999,0.39999999999999997
0.946001999311272,0.11708407857419625,0.26704405123225294,-0.005583882948843266,0.6499999999999999,0.39999999999999997
0.9454229384327459,0.1116180814530521,0.26695854208808867,-0.005835906139287639,0.6499999999999999,0.39999999999999997
0.9438663691769934,0.10070888994094815,0.26677974810355387,-0.0063072026579249485,0.6499999999999999,0.39999999999999997
0.9428902248196263,0.09527122585879097,0.26668578489359285,-0.006527198509988841,0.6499999999999999,0.39999999999999997
0.9405458197680355,0.08444368620191316,0.2664886680956855,-0.006940131766644431,0.6499999999999999,0.35
0.93916467693335,0.079243675257759,0.2665294994768268,-0.008084034313120991,0.6499999999999999,0.35
0.9356397670621939,0.0730615275273914,0.2701931926652452,-0.009402083988894638,0.6499999999999999,0.35
0.933643667491744,0.07091430690285526,0.27270102997374446,-0.009830237728493119,0.6499999999999999,0.35
0.929316785251437,0.06750350399674679,0.27804675672557955,-0.01049365310089967,0.6499999999999999,0.35
0.9270046929331685,0.06614506586775949,0.2807707209429655,-0.010784565086858988,0.6499999999999999,0.35
0.9221109991459729,0.06406271155516452,0.28623555903303766,-0.011321792646903805,0.6499999999999999,0.35
0.9195384700389173,0.06333462493821362,0.28896755313821054,-0.01157300050034138,0.6499999999999999,0.35
0.9168879058714536,0.06281646244808493,0.29169725313559414,-0.011813477254548177,0.6499999999999999,0.35
0.911369778042283,0.06241203310659111,0.29714875906152605,-0.0122636874705917,0.6499999999999999,0.35
0.9085107252303015,0.06252824336830884,0.2998704762285074,-0.012474532246589565,0.6499999999999999,0.35
0.9026140050159176,0.0634030186008665,0.3053061653985989,-0.012869788957571515,0.6499999999999999,0.35
0.8995848767428357,0.0641634884608735,0.3080203363749572,-0.013055230131023166,0.6499999999999999,0.35
0.8933865347530492,0.06633404262519368,0.31344187617958785,-0.013402889797178963,0.6499999999999999,0.35
0.8902259037902797,0.06774622502226407,0.3161493628213563,-0.013565840255850503,0.6499999999999999,0.35
0.8838031554331807,0.07122680719603962,0.3215582674250166,-0.013871316040074522,0.6499999999999999,0.35
0.8805496233491794,0.07329584021250113,0.324259877818871,-0.014015265300849622,0.6499999999999999,0.35
0.8739796642810861,0.07809306106287309,0.32965780939165334,-0.014283523616513083,0.6499999999999999,0.35
0.87067178165939,0.08082180752395646,0.33235426251819145,-0.014408896698423268,0.6499999999999999,0.35
0.8640316032713895,0.08693905355102141,0.33774254118852554,-0.01464455596295311,0.6499999999999999,0.35
0.8607077987597804,0.09032760975945295,0.3404344928233789,-0.014756626696723618,0.6499999999999999,0.35
0.8540739452936703,0.097763293883508,0.3458143237625555,-0.01496321952786328,0.6499999999999999,0.35
0.8507723314931619,0.10180990598923169,0.3485023064583702,-0.015060636704500974,0.6499999999999999,0.35
0.8442206859023378,0.11055882623660666,0.35387462272672054,-0.015243442776589067,0.6499999999999999,0.35
0.8409789946330027,0.11525992237987757,0.35655905170938884,-0.01532803121638926,0.6499999999999999,0.35
0.834584580446535,0.125311593534396,0.3619247146202085,-0.015488614001869072,0.6499999999999999,0.35
0.8314400969303083,0.13066022233314534,0.36460607245265464,-0.0155640035545217,0.6499999999999999,0.35
0.8252768769339967,0.1419990648881483,0.36996594759976265,-0.01570372246097862,0.6499999999999999,0.35
0.8222662373456416,0.14798687508184527,0.37264455276311514,-0.01577031940500162,0.5999999999999999,0.35
0.8164067630612655,0.16059366184291193,0.37799925833712167,-0.015892778817401254,0.5999999999999999,0.35
0.8135724093797206,0.16721161346278057,0.3806778231654844,-0.015566049564200268,0.5999999999999999,0.35
0.8108188440366206,0.17404163481088325,0.38336084289021866,-0.015192699931658282,0.5999999999999999,0.35
0.8055668443359256,0.1883297604352898,0.38874040352279504,-0.014490740720869644,0.5999999999999999,0.35
0.8030745680742054,0.19578404073223463,0.39143679262514186,-0.014157795332916834,0.5999999999999999,0.35
0.798372753930785,0.21130296299787563,0.39684198779917756,-0.013532313441623645,0.5999999999999999,0.35
0.7961692325117745,0.21936368027468064,0.399550439429718,-0.013238140442238144,0.5999999999999999,0.35
0.7920720468813371,0.23607619387221163,0.40497835422373685,-0.012683593215379263,0.5999999999999999,0.35
0.7901842110069498,0.2447239064179677,0.40769746940395557,-0.012422268591774976,0.5999999999999999,0.35
0.7867447554485425,0.2625900054631484,0.4131454154298968,-0.011928712016885834,0.5999999999999999,0.35
0.7851989535278732,0.2718031650184144,0.4158740654842825,-0.011699701123207173,0.5999999999999999,0.35
0.7824691787523446,0.2907778198227954,0.4213399505163173,-0.011262018103895377,0.5999999999999999,0.35
0.7812908087070858,0.30053388369903145,0.42407700003017523,-0.011056128530216647,0.5999999999999999,0.35
0.7793204544750734,0.32057079597153953,0.4295586814087661,-0.010668859406843811,0.5999999999999999,0.35
0.7785338926991708,0.33084576176606917,0.4323031415834052,-0.01048617211434788,0.5999999999999999,0.35
0.7773709197934913,0.35189441464062765,0.43779884986105805,-0.010143643467791286,0.5999999999999999,0.35
0.7769994815091674,0.362662390731322,0.4405499090245711,-0.009980587597179902,0.5999999999999999,0.39999999999999997
0.776689313980462,0.3846698160304298,0.4460580376493925,-0.009675439510523853,0.5999999999999999,0.39999999999999997
0.7771097436549921,0.3950691155709531,0.4480349157243074,-0.007982234718588499,0.5999999999999999,0.39999999999999997
0.779778255646835,0.41334293791393206,0.4490409468311206,-0.006781962460199242,0.5999999999999999,0.39999999999999997
0.7816093643156362,0.42209876215433567,0.4491039204988214,-0.006451586173187307,0.5999999999999999,0.39999999999999997
0.7859879959569231,0.4393247362755781,0.44902076529354185,-0.0059206691842070835,0.5999999999999999,0.39999999999999997
0.7885021316667394,0.4478337280777091,0.4489479303653484,-0.005684245903263108,0.5999999999999999,0.39999999999999997
0.7941486081730527,0.4646525226367356,0.44879447316433163,-0.005243399762200118,0.5999999999999999,0.44999999999999996
0.7972744702383916,0.47295661024432634,0.448719534540276,-0.005037000037574568,0.5999999999999999,0.44999999999999996
0.8056514304241391,0.4863457814518673,0.445764552770093,-0.002129319214670078,0.5999999999999999,0.44999999999999996
0.8107349760200073,0.4917321482477524,0.44320289466427054,-0.0015978823314566348,0.5999999999999999,0.44999999999999996
0.8161431622864642,0.49668462474941844,0.4404427453113134,-0.0011974935031882072,0.5999999999999999,0.49999999999999994
0.8277044538157683,0.5055498649983586,0.4347215038716684,-0.0005433450015979169,0.5999999999999999,0.49999999999999994
0.833804501812986,0.5094995428134302,0.43183219862719024,-0.00024918337846990823,0.5999999999999999,0.49999999999999994
0.8475526176256803,0.5145628091438741,0.4243811785100292,0.002850191967830762,0.5999999999999999,0.49999999999999994
0.8555134931276296,0.5150105622986297,0.41920135537756686,0.0036265646444655353,0.5999999999999999,0.49999999999999994
0.8723244607228121,0.5136812591875465,0.40809620947686615,0.004629409173745547,0.5999999999999999,0.49999999999999994
0.8810014935566944,0.5120923319748742,0.4024246363191378,0.00503416154851366,0.5999999999999999,0.49999999999999994
0.8987037449932681,0.5071845721736715,0.39103756087120173,0.005767939044233561,0.5999999999999999,0.49999999999999994
0.907680852289736,0.5038731327929855,0.38534299057846433,0.006109891005653845,0.5999999999999999,0.49999999999999994
0.9257859163959091,0.4955323880156057,0.3739666913427547,0.006750087497083612,0.5999999999999999,0.49999999999999994
0.934875498804671,0.4905011074418586,0.3682863514540008,0.007050150005134093,0.5999999999999999,0.49999999999999994
0.9530344641599108,0.47871385974369224,0.35694158728423764,0.007615817170537165,0.5999999999999999,0.49999999999999994
0.9620667145831527,0.4719573457817547,0.35127679092920194,0.007880976007660578,0.5999999999999999,0.49999999999999994
0.979943349821879,0.4567231342931326,0.3399616711205495,0.008380764906416038,0.5999999999999999,0.49999999999999994
0.9887509018845584,0.4482480594175973,0.33431088016372834,0.008616549424569353,0.5999999999999999,0.49999999999999994
1.0060124144901976,0.42959369297946554,0.3230219740454184,0.009059620376743682,0.5999999999999999,0.49999999999999994
1.0144299131208208,0.41942047711498764,0.31738348012741535,0.009267179768515321,0.5999999999999999,0.49999999999999994
1.0307480299536873,0.3974013058034058,0.3061176897781704,0.009659265295235198,0.5999999999999999,0.49999999999999994
1.0386125861114897,0.38556553161594986,0.30049021239756996,0.009841348948598672,0.5999999999999999,0.49999999999999994
1.0536654203258446,0.3602662104017815,0.28924498612598937,0.010189771212261833,0.5999999999999999,0.49999999999999994
1.060818719882124,0.34681564386714386,0.28362704284457196,0.010352738794040306,0.5999999999999999,0.49999999999999994
1.074293935576864,0.31834658386544384,0.272399884845677,0.010657263089391078,0.5999999999999999,0.49999999999999994
1.080582211823122,0.30334384630885397,0.26679048521333026,0.010802899370529806,0.5999999999999999,0.49999999999999994
1.0865489554637882,0.2878401326089039,0.2611837402409096,0.0109405806069105,0.5999999999999999,0.49999999999999994
1.0974538710749437,0.25536442239271157,0.2499776471274996,0.011201660696176452,0.5999999999999999,0.44999999999999996
1.1023604992133904,0.23841171678617484,0.24437813959442156,0.011323337016989843,0.5999999999999999,0.44999999999999996
1.1109771758015812,0.20330894291601695,0.23330956670673308,0.010398288911302123,0.5999999999999999,0.39999999999999997
1.1143389276386582,0.18699914761678363,0.22922401834327355,0.009788222560315862,0.5999999999999999,0.39999999999999997
1.1194195542383298,0.1568136203385245,0.2236554232301201,0.00787295606958982,0.5999999999999999,0.39999999999999997
1.1210936582344717,0.1438390172327487,0.22275904155096427,0.007013104832149786,0.5999999999999999,0.39999999999999997
1.123327333093256,0.11930288048401805,0.22231807251315727,0.006197690321086524,0.5999999999999999,0.39999999999999997
1.123980420525705,0.1072418208824592,0.2223234755612794,0.005923230492754117,0.5999999999999999,0.39999999999999997
1.1244214855544128,0.08320204265510148,0.2224388485961446,0.0054500915066229005,0.5999999999999999,0.39999999999999997
1.1242156007894624,0.07120001085922271,0.22251077518408935,0.005234058212642667,0.5999999999999999,0.35
1.122956826346995,0.04723777692114175,0.2226548059672846,0.0048292155140496895,0.5999999999999999,0.35
1.1218528846534659,0.036317392948088334,0.22348580353431702,0.003534763128281604,0.5999999999999999,0.35
1.1204097120537893,0.027048309087543684,0.22552483423632164,0.002738279222028739,0.5999999999999999,0.35
1.1167689976961466,0.01045609850898345,0.23079066589025188,0.0018526338017157418,0.5999999999999999,0.3
1.1146108427050618,0.002679854685418216,0.233620142067545,0.0015220813318439497,0.5999999999999999,0.3
1.109610389711822,-0.008093735987154781,0.24241763914328218,-0.0004590876463779203,0.5999999999999999,0.25
1.1068098708953984,-0.011534350246492653,0.24795443693234498,-0.0016352124509932953,0.5999999999999999,0.25
1.1006574522237529,-0.012016950050531602,0.26310275821349016,-0.003174807171029359,0.5999999999999999,0.25
1.0973348709747983,-0.010624085310173512,0.2714091749429093,-0.0037296368851631456,0.5999999999999999,0.25
1.0902237208630725,-0.005830191111431971,0.28837919035747395,-0.004671708825756404,0.5999999999999999,0.25
1.0864430715517652,-0.002553995480249142,0.2969191197092669,-0.005099511221818398,0.5999999999999999,0.25
1.0825178437164318,0.0012817211043832698,0.3054673405543833,-0.005509876538678515,0.5999999999999999,0.25
1.0742506519488642,0.010612962056905728,0.3225655534521299,-0.006279108032170466,0.5999999999999999,0.25
1.0699172833648232,0.01610544309417217,0.3311116553221336,-0.0066412752420488275,0.5999999999999999,0.25
1.0608725965256067,0.02874281740708328,0.34819533550508686,-0.007324568356464889,0.5999999999999999,0.25
1.0561699168724863,0.035887249244112136,0.356732938557383,-0.007647027043882204,0.5999999999999999,0.25
1.0464255426923752,0.05182749839024306,0.37379977837954437,-0.008253833111946607,0.5999999999999999,0.25
1.0413925014998868,0.06062301525467711,0.382329087745801,-0.00853947847501968,0.5999999999999999,0.25
1.0310262380702526,0.07986228369602111,0.3993802967801334,-0.009078755350453438,0.5999999999999999,0.25
1.0257016362008307,0.09030506544896011,0.4079023377740416,-0.009333596673330558,0.5999999999999999,0.25
1.0147909426579196,0.11283317889153296,0.42494001451606866,-0.009812672974004233,0.5999999999999999,0.25
1.0092134176063974,0.12491692730141592,0.43345579722074756,-0.010038934641528607,0.5999999999999999,0.25
0.9978354329257809,0.15071947961816842,0.45048144443391713,-0.010463984271440463,0.5999999999999999,0.25
0.9920434821984417,0.16443593425364997,0.4589915319220139,-0.010665061739144388,0.5999999999999999,0.25
0.9802748725384637,0.19349363345617024,0.47600635344142295,-0.01104361931247233,0.5999999999999999,0.25
0.97430667324472,0.20883197606389925,0.4845113011840376,-0.011221284963616185,0.5999999999999999,0.3
0.9682881515703444,0.22470790234687876,0.49301477334310495,-0.011392558426808863,0.5999999999999999,0.3
0.9566148813334151,0.2560118735596113,0.5083319034944387,-0.010298317468994345,0.5999999999999999,0.35
0.9511994366159978,0.2707449423200994,0.5145223874421294,-0.010134834254476477,0.5999999999999999,0.35
0.9416737143230318,0.2974328425244216,0.5234256062153588,-0.008224055518006868,0.5999999999999999,0.39999999999999997
0.9374858732140785,0.30992098061987994,0.5266239155444095,-0.007977628986111096,0.5999999999999999,0.39999999999999997
0.929746972126116,0.3350897112309376,0.5324438246497756,-0.0077439776742693756,0.5999999999999999,0.44999999999999996
0.9264322653396156,0.34707309591722724,0.5345464328616052,-0.0062672278281681315,0.5999999999999999,0.44999999999999996
0.9216493275718078,0.36803051296922945,0.5355841050221755,-0.003897957507456473,0.5999999999999999,0.44999999999999996
0.920438250125747,0.3764167378678921,0.5341040458210669,-0.0027927947240105055,0.5999999999999999,0.44999999999999996
0.9196548536461535,0.39097894482835693,0.5291740431757141,-0.0015915409290374605,0.5999999999999999,0.44999999999999996
0.9198215787917572,0.3977633492976851,0.5263785024136309,-0.001209633379994246,0.5999999999999999,0.44999999999999996
0.9210517695551984,0.41073487301513717,0.5206349527155316,-0.0005639080795603046,0.5999999999999999,0.44999999999999996
0.9220833390392014,0.4169498619393206,0.5177425417017885,-0.000270217405049733,0.5999999999999999,0.44999999999999996
0.9249353052450308,0.4288338431027489,0.5119579368727383,0.00027856284036209544,0.5999999999999999,0.44999999999999996
0.9267425889037292,0.4344918062359611,0.5090699172039588,0.0005361682912146115,0.5999999999999999,0.44999999999999996
0.931088057299017,0.44521036392709185,0.5033052812820631,0.0010203657570164726,0.5999999999999999,0.44999999999999996
0.9336140356723781,0.4502578085052097,0.5004286344133675,0.0012467736204553326,0.5999999999999999,0.44999999999999996
0.9393402260276081,0.45969923707776145,0.49468625073387695,0.001677297273853906,0.5999999999999999,0.44999999999999996
0.9425273113792833,0.46408147094003266,0.4918202518299588,0.0018790881938635096,0.5999999999999999,0.44999999999999996
0.9459215270900703,0.46823026307438775,0.48895751935420817,0.0020721175354125876,0.5999999999999999,0.44999999999999996
0.9533034712846342,0.4758065717596694,0.48324138319320564,0.002436418593255274,0.5999999999999999,0.44999999999999996
0.9572771473025065,0.479223642159991,0.48038773752078967,0.002608778764666475,0.5999999999999999,0.49999999999999994
0.965753529783352,0.4852917389808008,0.4746887463632845,0.002931924960000387,0.5999999999999999,0.49999999999999994
0.9706607295484433,0.486988822805907,0.4710886892869106,0.004924952492240564,0.5999999999999999,0.49999999999999994
0.9825093456959428,0.4859902642097943,0.4609555298288961,0.006429687596531952,0.5999999999999999,0.49999999999999994
0.9888819362729548,0.48435069570556954,0.4554399127759834,0.0068279149894852065,0.5999999999999999,0.49999999999999994
1.0020893034633795,0.4794136367000088,0.4441945040245803,0.007455088956106026,0.5999999999999999,0.49999999999999994
1.00885350930061,0.4761729267426455,0.43854068270624724,0.007732241817529184,0.5999999999999999,0.49999999999999994
1.022591650650886,0.46818015355606624,0.4272285757551608,0.008247277821866073,0.5999999999999999,0.49999999999999994
1.0295297494284614,0.46342773529392095,0.42157625832026957,0.008488026053616426,0.5999999999999999,0.49999999999999994
1.0434594196870342,0.45240547630498923,0.41028303552374545,0.008941904438942494,0.5999999999999999,0.49999999999999994
1.0504176244165258,0.4461341180782426,0.4046423084596147,0.00915413091195627,0.5999999999999999,0.49999999999999994
1.0642384603644173,0.4320684450523619,0.39337199948003754,0.009554416325386228,0.5999999999999999,0.49999999999999994
1.0710677423206765,0.4242759569209926,0.38774231417017857,0.009742961226308688,0.5999999999999999,0.49999999999999994
1.0844814027522265,0.40717857605382307,0.37649327585875847,0.010096346548940316,0.5999999999999999,0.49999999999999994
1.0910334084191768,0.3978765456108957,0.3708735548788775,0.01026367347110324,0.5999999999999999,0.49999999999999994
1.1037462518783918,0.3777794595807053,0.3596431480213176,0.010576857631278136,0.5999999999999999,0.49999999999999994
1.1098749478949668,0.3669907471587281,0.35403217969367917,0.01072445169941938,0.5999999999999999,0.49999999999999994
1.1215971387689037,0.3439532921352838,0.3428182390302119,0.011000893735059858,0.5999999999999999,0.49999999999999994
1.1271591977357311,0.33171366108052625,0.3372150271647163,0.011132247519816563,0.5999999999999999,0.49999999999999994
1.1376074906091183,0.3058201505523974,0.32601573013691,0.011376493509200891,0.5999999999999999,0.49999999999999994
1.1424631862839145,0.2921784664790952,0.32041946791153464,0.0114916340858493,0.5999999999999999,0.49999999999999994
1.1513632486437646,0.2635364049089324,0.30923296848631576,0.011709563375268628,0.5999999999999999,0.49999999999999994
1.1553780720651492,0.24855159986203543,0.3036427488359603,0.011810182017909954,0.5999999999999999,0.49999999999999994
1.1624655939661073,0.21729436161651103,0.2924678568431407,0.01200231620164005,0.5999999999999999,0.49999999999999994
1.1655104067676425,0.20103869787998915,0.28688303637514423,0.012092873772880264,0.5999999999999999,0.44999999999999996
1.170372892078158,0.1683862729691682,0.2764796359749413,0.010828473542672912,0.5999999999999999,0.44999999999999996
1.1719505617709902,0.15367853901738004,0.27285506740790577,0.01011960881315388,0.5999999999999999,0.44999999999999996
1.1739284380034236,0.12510078421416287,0.26681726896750657,0.009572758349835508,0.5999999999999999,0.39999999999999997
1.1744103881299992,0.11076361357151035,0.2640036202741034,0.009427909812502078,0.5999999999999999,0.35
1.174069541513655,0.08557113099833843,0.26127667871778826,0.0073854303299307755,0.5999999999999999,0.35
1.1733264523210674,0.07461302027934383,0.2611894750088246,0.006012004810203919,0.5999999999999999,0.3
1.1721605485859976,0.06586606898508729,0.2627382435750487,0.005169058065669807,0.5999999999999999,0.3
1.1689299671900182,0.05232735510000075,0.2685055548238502,0.0030296536447207423,0.5999999999999999,0.25
1.166862189719937,0.04843028444638521,0.273300155876985,0.002086348246845171,0.5999999999999999,0.25
1.1619788765901207,0.04584986951379436,0.28606684225867474,-0.0001482719945105071,0.5999999999999999,0.2
1.1591746735896933,0.04732551362639553,0.294066464263413,-0.000930657050905781,0.5999999999999999,0.2
1.152799482977747,0.05727282485815109,0.3141550261863326,-0.0029977424743370396,0.5999999999999999,0.2
1.1492636911952734,0.064540029160608,0.32524540590109474,-0.0037028111675241338,0.5999999999999999,0.2
1.1415957115773465,0.08165755785634832,0.3478828547297037,-0.004918880844712481,0.5999999999999999,0.2
1.137474644530075,0.09133377176836573,0.35927260203180955,-0.0054756305288055085,0.5999999999999999,0.2
1.1286723961645693,0.1127957258896154,0.3820778002449665,-0.0065187294806090534,0.5999999999999999,0.2
1.1239950121270867,0.1245674138924221,0.3934809671335415,-0.007010800891772417,0.5999999999999999,0.2
1.1140958156694347,0.15017739542427483,0.4162801684177293,-0.007937005044780676,0.5999999999999999,0.2
1.108877090121082,0.1640119990328468,0.42767548201063676,-0.00837392404116688,0.5999999999999999,0.25
1.0979089715488395,0.1937318071839009,0.45045732361478485,-0.009196511312480338,0.5999999999999999,0.25
1.0921625424490522,0.2096134062986484,0.4618441810181222,-0.009584904788916049,0.5999999999999999,0.3
1.0809021980185216,0.2397215847474624,0.48183781178176166,-0.009017649402549566,0.5999999999999999,0.3
1.075422126648739,0.25417346387178974,0.49063126190089545,-0.008354072478087726,0.5999999999999999,0.3
1.0655120455339502,0.2794515639931512,0.5040345710381613,-0.007916740172268844,0.5999999999999999,0.35
1.0607766096449167,0.2918552141303589,0.5099672069607082,-0.007961325382283446,0.5999999999999999,0.35
1.0515185656843655,0.3172706503794977,0.5213518297310338,-0.007138659897178767,0.5999999999999999,0.35
1.0475103573895512,0.3285541214670519,0.5254620882477865,-0.006664190158081951,0.5999999999999999,0.39999999999999997
1.040714604957983,0.3488614465899126,0.531119067786741,-0.004786207556325195,0.5999999999999999,0.39999999999999997
1.0382490365058252,0.3569897895236266,0.5320150986126393,-0.004115442380043577,0.5999999999999999,0.39999999999999997
1.0361471592549467,0.36462852607789825,0.5323773825348683,-0.003770115203748148,0.5999999999999999,0.44999999999999996
1.0326703136016526,0.37949514159813386,0.5325332934940719,-0.0033841192901791217,0.5999999999999999,0.44999999999999996
1.031572562433995,0.3858888265492118,0.5317512632395183,-0.0015665713018713223,0.5999999999999999,0.44999999999999996
1.0312402901322213,0.3950060562291595,0.5271880216409537,-0.00022745409388247317,0.5999999999999999,0.44999999999999996
1.031566873888745,0.3988967147822022,0.5244582596667582,0.00012434683024586946,0.5999999999999999,0.44999999999999996
1.032905630113068,0.4059988083537633,0.5187846346950795,0.0006785331664824756,0.5999999999999999,0.44999999999999996
1.0338774763912595,0.4092680623895325,0.5159160360328003,0.0009241123804730744,0.5999999999999999,0.44999999999999996
1.0363770708698126,0.415265698888438,0.5101718407804263,0.0013803448782920835,0.5999999999999999,0.44999999999999996
1.0378912411459678,0.4179898116344819,0.5073022018613809,0.0015943230939741149,0.5999999999999999,0.44999999999999996
1.0414187227561391,0.4228679359001732,0.5015717262631614,0.001995374563166674,0.5999999999999999,0.44999999999999996
1.0434202290713401,0.4250137050336489,0.49871114853147724,0.0021853902661750357,0.5999999999999999,0.44999999999999996
1.0478690283128822,0.42869817165824436,0.49299905840814606,0.002541122457192735,0.5999999999999999,0.44999999999999996
1.0503042223325414,0.4302290322194796,0.4901473517475152,0.00270929693806643,0.5999999999999999,0.39999999999999997
1.0555096131352164,0.43282085396717146,0.4845735053394189,0.0021689664973492118,0.5999999999999999,0.39999999999999997
1.057616058735309,0.43559498040311306,0.4832184260666663,0.0015107205108109145,0.5999999999999999,0.39999999999999997
1.0612589099208238,0.44307391113654304,0.4823729674922721,0.0009735738726330823,0.5999999999999999,0.39999999999999997
1.0630755495293036,0.4470764593515316,0.4822700784615137,0.000888628987225637,0.5999999999999999,0.39999999999999997
1.0669122152855985,0.4551000460473,0.48222247013830644,0.0007956000140778574,0.5999999999999999,0.39999999999999997
1.0689537725923466,0.4590681086537208,0.4822246074010764,0.0007621785360423239,0.5999999999999999,0.39999999999999997
1.0732964566485548,0.46687033579701803,0.48224057098662354,0.000701893190912406,0.5999999999999999,0.39999999999999997
1.0755973863650896,0.470696889300096,0.4822500884338775,0.0006740615799665228,0.5999999999999999,0.44999999999999996
1.077983500887963,0.4744706623848224,0.4822596525846392,0.0006477199956609336,0.5999999999999999,0.44999999999999996
1.0833959278115048,0.48086996322777126,0.4815588353992194,0.0021899726338585612,0.5999999999999999,0.44999999999999996
1.087076211350271,0.48187880786125636,0.47960426873679196,0.0028909775629704093,0.5999999999999999,0.44999999999999996
1.0953190226450555,0.48185031773823755,0.4744888009153051,0.0034665881162019296,0.5999999999999999,0.44999999999999996
1.0996631405762547,0.4812440132226733,0.4717278485862282,0.0036245370238274788,0.5999999999999999,0.44999999999999996
1.1086053347221425,0.4791470614967045,0.4661094419490338,0.0038871750383910886,0.5999999999999999,0.44999999999999996
1.113171786563786,0.47768444971943386,0.463285995486588,0.004003121940570287,0.5999999999999999,0.44999999999999996
1.1224453568470385,0.4739464521601335,0.4576361352678202,0.004218275583474762,0.5999999999999999,0.44999999999999996
1.127136165891657,0.47167063923316066,0.45481240696962966,0.004319541252896242,0.5999999999999999,0.44999999999999996
1.1365871446471603,0.46630194909317235,0.4491690388035229,0.004509178508291578,0.5999999999999999,0.44999999999999996
1.141331936036327,0.46320818642690037,0.4463495337727216,0.004599545224891033,0.5999999999999999,0.44999999999999996
1.1508223447694936,0.456199290002765,0.4407147009559902,0.00476651437954323,0.5999999999999999,0.44999999999999996
1.1555527362755615,0.4522840522001332,0.43789929097482155,0.004846154467970765,0.5999999999999999,0.44999999999999996
1.1602629631719157,0.44809566758591324,0.4350851643696431,0.0049219165861398295,0.5999999999999999,0.44999999999999996
1.1695934569556268,0.4388990441626845,0.4294604886623821,0.0050653052841984625,0.5999999999999999,0.44999999999999996
1.1741983479795561,0.4338929952733766,0.4266498840042941,0.005131593199948492,0.5999999999999999,0.44999999999999996
1.1832501865004714,0.4230697992320404,0.4210319014859481,0.005259062007434867,0.5999999999999999,0.44999999999999996
1.1876821376224755,0.4172554361572489,0.41822445506423533,0.005319450495875122,0.5999999999999999,0.44999999999999996
1.1963214211085704,0.4048282662622233,0.41261240146504335,0.005430487426088648,0.5999999999999999,0.44999999999999996
1.2005140567163015,0.3982193844523029,0.4098077408959982,0.005483700102381972,0.5999999999999999,0.44999999999999996
1.2086092724841797,0.3842211196852633,0.40420094398023676,0.005583266202390469,0.5999999999999999,0.44999999999999996
1.212497547217119,0.3768366318487587,0.40139874473771064,0.005630084483121411,0.5999999999999999,0.44999999999999996
1.2199203136939738,0.3613100004645864,0.39579660593480626,0.005716468181547363,0.5999999999999999,0.44999999999999996
1.223440826271326,0.3531742601222873,0.3929966143969484,0.005761447368791028,0.5999999999999999,0.44999999999999996
1.230066348578321,0.33617288225241104,0.3873986461553436,0.005836798335593141,0.5999999999999999,0.44999999999999996
1.2331578795565385,0.327314805614052,0.38460063378184034,0.00587399757555751,0.5999999999999999,0.44999999999999996
1.2388661367091374,0.3089011994179198,0.3790064030404432,0.005942696559170013,0.5999999999999999,0.44999999999999996
1.2414699807045746,0.2993541579535102,0.3762101609014773,0.005975469652617749,0.5999999999999999,0.44999999999999996
1.2438988033173621,0.28958507479009604,0.3734144224173797,0.006006478629874135,0.5999999999999999,0.44999999999999996
1.2482067682251898,0.2693997650488272,0.3678244615231079,0.006065448491669123,0.5999999999999999,0.44999999999999996
1.2500740685581493,0.25899255504949453,0.36503018192041825,0.006092617560210067,0.5999999999999999,0.39999999999999997
1.2532063367945323,0.23757447793230788,0.3594430369597866,0.006144577067253687,0.5999999999999999,0.39999999999999997
1.254243706659822,0.22779757151342037,0.357480278517315,0.004966724012589685,0.5999999999999999,0.35
1.2549660338841888,0.2122836082133641,0.35660922015501184,0.003197751894899792,0.5999999999999999,0.35
1.2545802088671572,0.20737978192027126,0.3582123946872128,0.002422066018104685,0.5999999999999999,0.35
1.2529422830859318,0.20039427932264786,0.3631890769106036,0.0014247796067046181,0.5999999999999999,0.35
1.2518442699178427,0.1975353861681091,0.36597583012836166,0.0010959475462504198,0.5999999999999999,0.35
1.249214148094072,0.19253506881027566,0.37168948960168485,0.0005324332907910012,0.5999999999999999,0.35
1.2477002713004446,0.19034115129701912,0.3745663725898493,0.0002738552915022563,0.5999999999999999,0.35
1.244301247651045,0.1865377404313135,0.38032285397775994,-0.0002083130667418498,0.5999999999999999,0.35
1.2424244680019096,0.1849286129478101,0.3831985855927978,-0.0004347425596356036,0.5999999999999999,0.35
1.2383360890448354,0.18230341980690853,0.38894252099074844,-0.0008614293132391815,0.5999999999999999,0.35
1.2361323414841296,0.18129059538624664,0.39181065743438626,-0.0010627553325313066,0.5999999999999999,0.35
1.2314254599554366,0.17987273261535935,0.39753955941814856,-0.001441775380910837,0.5999999999999999,0.35
1.2289301663854955,0.17947175213087668,0.40040045755129094,-0.0016197050836561644,0.5999999999999999,0.35
1.223676000476456,0.17929238040014528,0.40611567505809865,-0.0019557544573005625,0.5999999999999999,0.35
1.22092510649051,0.17951761950301057,0.4089701061131079,-0.0021143539328307703,0.5999999999999999,0.35
1.2180970809457015,0.17995452857849145,0.4118225325908362,-0.0022660210521652235,0.5999999999999999,0.35
1.2122260088921493,0.1814676553062284,0.41752176056788237,-0.0025528275351738294,0.5999999999999999,0.35
1.206095460284053,0.18384179191657807,0.42321386655745946,-0.002818152636485882,0.5999999999999999,0.35
1.2029431802372654,0.18535435050159654,0.42605740673503667,-0.0029413553078234678,0.5999999999999999,0.35
1.1997384222117915,0.18708493209175886,0.4288993832238926,-0.0030607228945973564,0.5999999999999999,0.35
1.1931880672856245,0.19120315046773098,0.43457887378453686,-0.0032863960846847284,0.5999999999999999,0.35
1.189850832222547,0.19359190161413797,0.43741650626267176,-0.0033926468366483054,0.5999999999999999,0.35
1.1830729744647352,0.1990317962693651,0.44308781441638295,-0.0035929095258342425,0.5999999999999999,0.35
1.1796407375582467,0.20208344289709498,0.44592160448197304,-0.003686880615079824,0.5999999999999999,0.35
1.1727104578190972,0.20885246371139024,0.4515856207113439,-0.003864435856687276,0.5999999999999999,0.35
1.1692207340233802,0.21257031642576082,0.4544159227953237,-0.0039478779424653165,0.5999999999999999,0.35
1.1622129910013526,0.22067242292291459,0.4600733612072725,-0.004104767861211167,0.5999999999999999,0.35
1.158703370443342,0.22505576199132446,0.4629006602574066,-0.004179542210616338,0.5999999999999999,0.35
1.1516932723170328,0.23448714338679588,0.4685524469614407,-0.004318830490658954,0.5999999999999999,0.35
1.148200981451608,0.23953497756940487,0.47137694757722626,-0.004385103113585531,0.5999999999999999,0.35
1.14126268375738,0.2502911492800038,0.47702348651097526,-0.004508999997871133,0.5999999999999999,0.39999999999999997
1.13782487564624,0.25599824524310594,0.47984560493140793,-0.004567377673738271,0.5999999999999999,0.39999999999999997
1.1315622246414174,0.2657431878361659,0.4838165514956554,-0.002797586125064866,0.5999999999999999,0.39999999999999997
1.1289415003254912,0.26896329468621233,0.4843441125405892,-0.002418637078127839,0.5999999999999999,0.39999999999999997
1.124111404034424,0.27474812372310603,0.48463121382442353,-0.002092397619216646,0.5999999999999999,0.39999999999999997
1.1218323151693401,0.27759174053508967,0.4846471546093384,-0.001994692553288324,0.5999999999999999,0.39999999999999997
1.117497540593472,0.2833714616445107,0.4846190414202972,-0.001832815236622265,0.5999999999999999,0.39999999999999997
1.11543796037384,0.2863248729184847,0.48459611246995193,-0.0017602102526228514,0.5999999999999999,0.39999999999999997
1.1115349144889746,0.29236414554680723,0.48454823685014725,-0.0016239236202604257,0.5999999999999999,0.39999999999999997
1.1096928387817981,0.29544781737528575,0.48452490997909914,-0.001560140395423959,0.5999999999999999,0.39999999999999997
1.1079245976629475,0.2985728800733521,0.48450234358844635,-0.0014980443929282217,0.5999999999999999,0.44999999999999996
1.1046129761102057,0.30493940535806796,0.4844596777203025,-0.0013821954030679429,0.5999999999999999,0.44999999999999996
1.1031101301832011,0.3080183022409227,0.48434657885063226,-0.0002811551508212773,0.5999999999999999,0.44999999999999996
1.10162190318918,0.30952087493943137,0.48051795634953276,0.0013146141075988105,0.5999999999999999,0.44999999999999996
1.1012446701814673,0.30929688342897693,0.47790787717866756,0.0016592691246317681,0.5999999999999999,0.44999999999999996
1.1008461541104189,0.30806929089600366,0.4723431454291809,0.0021213891938063334,0.5999999999999999,0.44999999999999996
1.100777575353684,0.30718012777663967,0.4695059526117522,0.0023126367693258043,0.5999999999999999,0.44999999999999996
1.1008502002511338,0.30492640965103285,0.4638111190350871,0.002662162962389969,0.5999999999999999,0.44999999999999996
1.1009790773875403,0.3035668223266462,0.4609630278647796,0.0028257235874222797,0.5999999999999999,0.44999999999999996
1.1013963150213457,0.3003799167738441,0.45527239719567913,0.0031316777332313084,0.5999999999999999,0.44999999999999996
1.1016749020795327,0.2985504606252064,0.452430451863177,0.00327446375243845,0.5999999999999999,0.44999999999999996
1.1023483669974121,0.29441173244060526,0.4467532974512318,0.0035466142645013132,0.5999999999999999,0.44999999999999996
1.1027335217812786,0.2921005884747473,0.44391797798595145,0.003674773337273951,0.5999999999999999,0.44999999999999996
1.1035764002460438,0.28699083022662036,0.4382536091724245,0.003912522803999341,0.5999999999999999,0.44999999999999996
1.1040245056740707,0.2841903812317742,0.43542435857102424,0.0040274988110615695,0.5999999999999999,0.44999999999999996
1.1049496653412616,0.2780959550193616,0.4297713647232666,0.004240142346749076,0.5999999999999999,0.44999999999999996
1.1054170183017373,0.27480115037487934,0.4269474854166033,0.004339875551984118,0.5999999999999999,0.44999999999999996
1.1063370884179582,0.26771486086344637,0.4213045398203863,0.004528355853357979,0.5999999999999999,0.44999999999999996
1.106780034940507,0.26392373402237074,0.418485385177233,0.004617494526664601,0.5999999999999999,0.44999999999999996
1.107205178363364,0.2599672585115076,0.41566764417622126,0.004702692600245362,0.5999999999999999,0.44999999999999996
1.1079827883068794,0.25155951564695134,0.4100362642854285,0.004862175347498665,0.5999999999999999,0.44999999999999996
1.108325569620537,0.24710980514313446,0.4072225585954026,0.004937929216915826,0.5999999999999999,0.44999999999999996
1.108895442757616,0.2377209233591481,0.4015987419078586,0.005078318205343546,0.5999999999999999,0.44999999999999996
1.1091130446591322,0.23278367455490592,0.39878855108336086,0.00514617102298609,0.5999999999999999,0.44999999999999996
1.1093901188957482,0.22242913710116768,0.3931713808060091,0.005272354676423507,0.5999999999999999,0.44999999999999996
1.1094404039958166,0.21701377894471538,0.39036429625289526,0.005330878125448635,0.5999999999999999,0.44999999999999996
1.1093414117332097,0.20571499698219164,0.38475295881221516,0.005442202711608779,0.5999999999999999,0.44999999999999996
1.109183065720355,0.19983507704070483,0.38194867223449425,0.005494837444595557,0.5999999999999999,0.44999999999999996
1.1086267054642085,0.18762131464330994,0.37634253866780965,0.005593217248999638,0.5999999999999999,0.44999999999999996
1.1082199156822878,0.18129168819412259,0.37354066495650917,0.005637896125696873,0.5999999999999999,0.44999999999999996
1.1071276896235547,0.16819720319688505,0.36793910103853467,0.0057237841897597175,0.5999999999999999,0.44999999999999996
1.1064338994142853,0.16143666039728272,0.3651393375491039,0.005767442082941221,0.5999999999999999,0.44999999999999996
1.104730284528198,0.14750230986385346,0.3595418176599767,0.005844575241113814,0.5999999999999999,0.44999999999999996
1.1037125196213864,0.1403332983245914,0.3567439847760996,0.0058809290004571135,0.5999999999999999,0.44999999999999996
1.1013255137521436,0.12560590203913705,0.3511500873404967,0.0059497032278919,0.5999999999999999,0.44999999999999996
1.0999487840020232,0.11805230504591813,0.3483539037765633,0.005981392623249704,0.5999999999999999,0.39999999999999997
1.0984448958602282,0.11037714026476622,0.3455582694112165,0.006012814618406637,0.5999999999999999,0.39999999999999997
1.0950415982672217,0.09467247156836092,0.339968466324299,0.00607113482304289,0.5999999999999999,0.35
1.0930375988592493,0.08768872104644107,0.3379604233907747,0.0048491227601352715,0.5999999999999999,0.35
1.088294165823881,0.07740373224482214,0.33693983120802606,0.0028993559164545157,0.5999999999999999,0.35
1.0855476997113107,0.07470752481663318,0.3383345642575386,0.002176072299538312,0.5999999999999999,0.35
1.0795527318437128,0.07226984289587088,0.3431728804748686,0.0011569957988206703,0.5999999999999999,0.35
1.0763870275485918,0.0717454586614673,0.3459390652930394,0.0008345432848595458,0.5999999999999999,0.35
1.0697911688755517,0.07153462262332012,0.3516355981286545,0.00028742533424286343,0.5999999999999999,0.35
1.0663747455669357,0.0717958557469901,0.35450790182415703,3.975816626300421e-05,0.5999999999999999,0.35
1.0593308884987975,0.07301887137993286,0.36025745145575483,-0.0004244658396823642,0.5999999999999999,0.35
1.0557128820170951,0.07397942190249379,0.36313015149501426,-0.0006416661583947825,0.5999999999999999,0.35
1.0483078358666609,0.0766000907132381,0.36886853250689455,-0.0010541974170084067,0.5999999999999999,0.35
1.0445299803035042,0.07826153542998804,0.3717340603131647,-0.0012470930945045478,0.5999999999999999,0.35
1.040708030706218,0.08015815249891792,0.3745971660933751,-0.0014328619766084127,0.5999999999999999,0.35
1.0329502189195854,0.08465859835726876,0.38031654980444074,-0.0017833295887426104,0.5999999999999999,0.35
1.0290235502041503,0.08726330996745947,0.3831729902309928,-0.0019484505198024138,0.5999999999999999,0.35
1.0210975586428193,0.09318410889928432,0.38887970082314505,-0.002259109059218334,0.5999999999999999,0.35
1.0171074411648884,0.09650002769307033,0.39173020822878213,-0.0024053048506242902,0.5999999999999999,0.35
1.009095759358637,0.10384428180665746,0.3974257647226298,-0.002681528905977837,0.5999999999999999,0.35
1.0050833302673152,0.10787244700395464,0.40027094553535525,-0.0028110437313144665,0.5999999999999999,0.35
0.9970679908946462,0.11663983903128297,0.4059564806135141,-0.003055294712382972,0.5999999999999999,0.35
0.9930741490943218,0.12137798183359676,0.4087969971321943,-0.003170911187450942,0.5999999999999999,0.35
0.9851365725132479,0.13156143028923115,0.4144737342705538,-0.0033873094392948833,0.5999999999999999,0.35
0.9812017922219578,0.13700539155261116,0.41731008819346327,-0.0034901816651453643,0.5999999999999999,0.35
0.9772956048218505,0.1426834134847604,0.4201451423201479,-0.003588896383398321,0.5999999999999999,0.35
0.9695866960741505,0.15473766948964318,0.42581158267521335,-0.0037721774204695357,0.5999999999999999,0.35
0.9657927682110421,0.1611115254126716,0.42864313239570473,-0.003860242737924402,0.5999999999999999,0.35
0.9583475995558455,0.1745484782681683,0.4343029268189227,-0.004025242504614335,0.5999999999999999,0.35
0.9547050014718002,0.18160874999536938,0.43713128168592563,-0.004102555722975021,0.5999999999999999,0.35
0.9476009104903019,0.19640685299525495,0.44278505149931835,-0.00424800838066175,0.5999999999999999,0.35
0.9441478810830789,0.20414128735854875,0.4456105835772841,-0.004317048387417977,0.5999999999999999,0.39999999999999997
0.9374607341191501,0.22027194260327052,0.45125916514456144,-0.004445699396538938,0.5999999999999999,0.39999999999999997
0.9342347334464527,0.22866507827659333,0.4540822580329458,-0.004506543186946876,0.5999999999999999,0.39999999999999997
0.9288325980547673,0.24287691952308457,0.456986212586008,-0.0025346944584276887,0.5999999999999999,0.44999999999999996
0.9266473617790286,0.24884783240746747,0.45723499695372194,-0.0011218003570276913,0.5999999999999999,0.44999999999999996
0.9239178604890675,0.25635892825596757,0.4536019787649517,0.0005563496030813742,0.5999999999999999,0.44999999999999996
0.9230123799835354,0.259219591696443,0.45100839318821073,0.0009393165264530712,0.5999999999999999,0.44999999999999996
