2.3105919685093577,-1.4284522903670385,-1.4801149925694537,0.03752622305294251,0.49999999999999983,-0.39999999999999986
2.292393271065115,-1.4337974746627513,-1.4846575468384426,0.03748903096682055,0.49999999999999983,-0.39999999999999986
2.255670294097491,-1.4453231414251002,-1.4937411508770948,0.03742575660547298,0.49999999999999983,-0.39999999999999986
2.218542642396269,-1.4579658474235253,-1.5028230984812896,0.037368427728689646,0.49999999999999983,-0.39999999999999986
2.199837376522224,-1.4647083876839988,-1.5073633829086053,0.037339502849514705,0.49999999999999983,-0.39999999999999986
2.162165308078136,-1.4790389428603248,-1.5164427393093272,0.037290937979073346,0.49999999999999983,-0.39999999999999986
2.124174018013579,-1.494498131759511,-1.5255207414221181,0.03724612728308441,0.49999999999999983,-0.39999999999999986
2.1050691316858003,-1.5026523153568336,-1.5300592131064643,0.03722523536991451,0.49999999999999983,-0.39999999999999986
2.066663332630736,-1.5198098784681529,-1.5391353135027408,0.03718601093256391,0.49999999999999983,-0.39999999999999986
2.0280245662731033,-1.5381010270085844,-1.5482102832336975,0.03715066503748132,0.49999999999999983,-0.39999999999999986
2.008628607814058,-1.547671779111029,-1.5527473685662356,0.037132857358769034,0.49999999999999983,-0.39999999999999986
1.9697055186783945,-1.567662671420423,-1.5618208819627004,0.03710450253036934,0.49999999999999983,-0.44999999999999984
1.9306367286180017,-1.5887842924240425,-1.5708935730972502,0.03707553365723171,0.49999999999999983,-0.44999999999999984
1.9110982241423498,-1.599695425495069,-1.5754089358520034,0.037750087773261054,0.49999999999999983,-0.44999999999999984
1.8762358709790479,-1.6170554409077809,-1.5818612569858506,0.03852834922150117,0.49999999999999983,-0.44999999999999984
1.8429134081632,-1.633722874452453,-1.5874229877501487,0.03875806280195948,0.49999999999999983,-0.44999999999999984
1.8264486448244432,-1.6422886383308455,-1.590111532955547,0.03881573121141724,0.49999999999999983,-0.44999999999999984
1.7937181543516953,-1.6601326256442799,-1.595436573353926,0.0389000202876455,0.49999999999999983,-0.44999999999999984
1.761202450980228,-1.6790090675532012,-1.6007412702844772,0.038965569888974594,0.49999999999999983,-0.44999999999999984
1.7450265367161253,-1.6888419547432407,-1.603392145973549,0.038995215472283684,0.49999999999999983,-0.49999999999999983
1.7128548475601906,-1.7092967799219096,-1.6086939173062982,0.0390504369587541,0.49999999999999983,-0.49999999999999983
1.6976905044601918,-1.7190199360186376,-1.6108833284285473,0.040120669924913255,0.49999999999999983,-0.49999999999999983
1.6712040140283748,-1.7354926322427104,-1.6132458633449727,0.04087694695430644,0.49999999999999983,-0.49999999999999983
1.6463129020976024,-1.751758517223859,-1.6149642907720583,0.04114544761414485,0.49999999999999983,-0.49999999999999983
1.6341676199624993,-1.7601247804281752,-1.6157584920526895,0.04123154437082932,0.49999999999999983,-0.49999999999999983
1.6103305797508873,-1.7774717738041435,-1.6173120171968849,0.041372859807931706,0.49999999999999983,-0.49999999999999983
1.5870653166771627,-1.7956747893552774,-1.6188540473129727,0.04149342848133197,0.49999999999999983,-0.49999999999999983
1.5756484912035569,-1.8050980480509258,-1.619625051164665,0.04154979438414985,0.49999999999999983,-0.49999999999999983
1.553263397192199,-1.824575840598427,-1.621169091490616,0.0416514312475702,0.49999999999999983,-0.49999999999999983
1.5315011364775157,-1.8448758290647531,-1.6227164243703045,0.04174425640317425,0.49999999999999983,-0.49999999999999983
1.5208624198837732,-1.8553268369555567,-1.6234913255166337,0.04178757616169082,0.49999999999999983,-0.49999999999999983
1.500088907314755,-1.87681442834753,-1.6250434454382363,0.041868271441665605,0.49999999999999983,-0.49999999999999983
1.4800100953196704,-1.8990611599852,-1.6265984483148423,0.04194026357360281,0.49999999999999983,-0.49999999999999983
1.4702401476658369,-1.9104604297651042,-1.6273769437876984,0.0419741874519628,0.49999999999999983,-0.49999999999999983
1.4512553311343335,-1.9337939163270204,-1.6289357458939617,0.04203667443163561,0.49999999999999983,-0.49999999999999983
1.433033504023839,-1.957815382070285,-1.6304968316729962,0.04209434852911409,0.49999999999999983,-0.49999999999999983
1.424216072258305,-1.970075163696351,-1.6312781628547826,0.04212045364570027,0.49999999999999983,-0.49999999999999983
1.4071837881810934,-1.995073544828168,-1.6328422312550082,0.04216930770973959,0.49999999999999983,-0.49999999999999983
1.3989750430064112,-2.007804193053431,-1.6336249304819934,0.04219234811908512,0.49999999999999983,-0.49999999999999983
1.3831859429929412,-2.0337087683723944,-1.6351916002264546,0.04223472080630941,0.49999999999999983,-0.49999999999999983
1.3682527242243918,-2.060177289515492,-1.6367598044624816,0.042273427837724586,0.49999999999999983,-0.49999999999999983
1.3611132970427413,-2.073612926576286,-1.6375444227075069,0.042291846604957994,0.49999999999999983,-0.49999999999999983
1.3475016338464971,-2.100865356605919,-1.639114633936669,0.04232457933225242,0.49999999999999983,-0.49999999999999983
1.3347950429177422,-2.1285974144123005,-1.6406860827867011,0.04235529274277505,0.49999999999999983,-0.49999999999999983
1.3287866504401615,-2.142632395923591,-1.6414722228017602,0.04236986735124271,0.49999999999999983,-0.49999999999999983
1.317469338100664,-2.1710186781886422,-1.6430452616893212,0.04239595522025352,0.49999999999999983,-0.49999999999999983
1.312164866991603,-2.1853605580732274,-1.6438321302031507,0.042407278110457636,0.49999999999999983,-0.5499999999999998
1.3022716939716068,-2.214320207296659,-1.6454065377264353,0.04243007375631125,0.49999999999999983,-0.5499999999999998
1.294384043700934,-2.2429249876422297,-1.6465319039033228,0.043571588907878045,0.49999999999999983,-0.5499999999999998
1.2933566116040358,-2.25570461790944,-1.6459945709434372,0.04411069269141987,0.49999999999999983,-0.5499999999999998
1.293844097740642,-2.280263246575804,-1.6441936847891707,0.04454929898140314,0.49999999999999983,-0.5499999999999998
1.2962263808861552,-2.3043684235334037,-1.64208389644848,0.044741790889772926,0.49999999999999983,-0.5499999999999998
1.297932142999485,-2.31634794336652,-1.6409987478845494,0.04481245747834173,0.49999999999999983,-0.5499999999999998
1.3022643072101903,-2.3401866336457036,-1.6388136369117614,0.04493486881005371,0.49999999999999983,-0.5499999999999998
1.307780565936922,-2.3638429939271215,-1.6366253416090655,0.04503555422719585,0.49999999999999983,-0.5499999999999998
1.3109747827704608,-2.3755900783808914,-1.6355320159776352,0.045090220163362504,0.49999999999999983,-0.5499999999999998
1.318230486709092,-2.39889043927728,-1.6333476471307393,0.04517815711481443,0.49999999999999983,-0.5499999999999998
1.326625542442522,-2.4218963481050286,-1.6311667646026384,0.04526227457506926,0.49999999999999983,-0.5499999999999998
1.331247068441823,-2.433273375599596,-1.6300775183136227,0.04529742119345226,0.49999999999999983,-0.5499999999999998
1.3413285198298697,-2.4557460563020173,-1.6279012516253886,0.04536886182402289,0.49999999999999983,-0.5499999999999998
1.3525131726298303,-2.477805049991799,-1.6257277768214082,0.04543197856173786,0.49999999999999983,-0.5499999999999998
1.3585142802273535,-2.488664592498538,-1.6246419766068367,0.045462824399812085,0.49999999999999983,-0.5499999999999998
1.3713195027499168,-2.510016533592953,-1.6224721886769706,0.04551635923738373,0.49999999999999983,-0.5499999999999998
1.3851799307553565,-2.530840473411215,-1.6203045206837436,0.0455661901241764,0.49999999999999983,-0.5499999999999998
1.3924991816256802,-2.541040466122396,-1.6192214191780363,0.045589495626876086,0.49999999999999983,-0.5499999999999998
1.4078979925915174,-2.560991025996582,-1.6170566709465504,0.04563153778654638,0.49999999999999983,-0.5499999999999998
1.4159712145072272,-2.570731046140408,-1.615974956141616,0.045651704558951955,0.49999999999999983,-0.5499999999999998
1.4328505827819187,-2.589713317405363,-1.6138126477444028,0.04568891867688274,0.49999999999999983,-0.5499999999999998
1.4416496077682242,-2.598945501780059,-1.612732042078598,0.04570495416863496,0.49999999999999983,-0.5499999999999998
1.4599462945704489,-2.616868099404762,-1.6105719216508871,0.045736645551640365,0.49999999999999983,-0.5499999999999998
1.4791503754416657,-2.6340353355483557,-1.6084130620021135,0.045766617812862176,0.49999999999999983,-0.5499999999999998
1.489083018312412,-2.6423237569458915,-1.6073340599103831,0.04578046240133338,0.49999999999999983,-0.5499999999999998
1.5095879510320749,-2.658287977095271,-1.605176898771509,0.045805070525471114,0.49999999999999983,-0.5999999999999999
1.52015290080577,-2.665954156301068,-1.6040986456893083,0.045816438309719265,0.49999999999999983,-0.5999999999999999
1.5418900899508712,-2.68060234394284,-1.6019419903755912,0.04665583184688815,0.49999999999999983,-0.5999999999999999
1.5715686486530795,-2.6897557592244614,-1.5971786628025408,0.047848472142252296,0.49999999999999983,-0.6499999999999999
1.587815600467261,-2.693143269597225,-1.59439355718209,0.04807001163216329,0.49999999999999983,-0.6499999999999999
1.6214226343617164,-2.698480605576276,-1.5886277413720866,0.04922545408338941,0.49999999999999983,-0.6499999999999999
1.6416653129501888,-2.698520122526865,-1.5845956857547476,0.050132072109046355,0.49999999999999983,-0.6499999999999999
1.6855701797246538,-2.6952043555195138,-1.5754744680587085,0.05096175935439606,0.49999999999999983,-0.6499999999999999
1.7313063580768047,-2.688959811396085,-1.5658962886933492,0.05132843302852308,0.49999999999999983,-0.6499999999999999
1.7544765231359905,-2.6849384521577884,-1.5610632817694405,0.05146048312332496,0.49999999999999983,-0.6499999999999999
1.8011690615945783,-2.6751874991792017,-1.551377500620265,0.05170157972383449,0.49999999999999983,-0.6499999999999999
1.8481694677657399,-2.663180202277565,-1.541690219501569,0.05190411577314502,0.49999999999999983,-0.6499999999999999
1.8717401072898683,-2.6563308520308846,-1.5368491355875873,0.05198339401804697,0.49999999999999983,-0.6499999999999999
1.9189514715585592,-2.6409317107753387,-1.5271729598737132,0.05216193783742695,0.5499999999999998,-0.6499999999999999
1.9661679999794281,-2.623251691608815,-1.5175034685989228,0.05211556441310061,0.5499999999999998,-0.6499999999999999
1.9897482118565355,-2.613534851842063,-1.5126620513982512,0.05164863775489237,0.5499999999999998,-0.6499999999999999
2.0367979335230117,-2.592311453162363,-1.502949154444586,0.050779582954921576,0.5499999999999998,-0.6499999999999999
2.083609924384357,-2.568701907209617,-1.4931963762668203,0.05000181102118928,0.5499999999999998,-0.6499999999999999
2.1068894881640543,-2.5560059599207774,-1.488306116577795,0.049642685537250486,0.5499999999999998,-0.6499999999999999
2.153123744980507,-2.5288397993499383,-1.4785000998441156,0.04897809703285927,0.5499999999999998,-0.6499999999999999
2.1760500827607063,-2.514373464890175,-1.4735850692021877,0.04867591372070246,0.5499999999999998,-0.6499999999999999
2.2214408386647517,-2.4836955137987125,-1.4637337855381816,0.048116167617232586,0.5499999999999998,-0.6499999999999999
2.243878339974794,-2.4674890292195903,-1.4587980644339882,0.04785790233644627,0.5499999999999998,-0.6499999999999999
2.2881634424614177,-2.4333630332142877,-1.4489084179622913,0.047379835904308276,0.5499999999999998,-0.6499999999999999
2.331571473079381,-2.396979586695564,-1.4389961453729434,0.04695327316810438,0.5499999999999998,-0.6499999999999999
2.352910506534099,-2.377954900717652,-1.4340323952486052,0.046754169637541976,0.5499999999999998,-0.6499999999999999
2.3947897609006956,-2.3382677216434327,-1.4240909599138591,0.04639360794591685,0.5499999999999998,-0.6499999999999999
2.4355153855083986,-2.2964363446605462,-1.4141323343898273,0.04606625048854829,0.5499999999999998,-0.6499999999999999
2.455411503786858,-2.274734129985913,-1.4091472541484755,0.04591581770916853,0.5499999999999998,-0.6499999999999999
2.494205411323535,-2.2297930128074244,-1.3991664085717246,0.04563874195360107,0.5499999999999998,-0.6499999999999999
2.5130764019981764,-2.20657110881126,-1.3941712486403024,0.045513907293565525,0.5499999999999998,-0.6499999999999999
2.549708534957235,-2.158660110846177,-1.3841717741964643,0.045278573887952644,0.5499999999999998,-0.6499999999999999
2.5674453530437282,-2.133988260434594,-1.3791677883119355,0.045169476056372115,0.5499999999999998,-0.6499999999999999
2.6017025708063297,-2.0832551880094035,-1.3691519767075342,0.04497066311244424,0.5999999999999999,-0.6499999999999999
2.6342570314126323,-2.030739183076659,-1.3591271213863443,0.044793798746883606,0.5999999999999999,-0.6499999999999999
2.6498689204906323,-2.003824849000927,-1.354107497144434,0.044262376947736826,0.5999999999999999,-0.6499999999999999
2.679712511696975,-1.9486660437806975,-1.3440306130593838,0.043168865882182494,0.5999999999999999,-0.6499999999999999
2.693924217028257,-1.9204425335296158,-1.3389732452931182,0.042663950068296375,0.5999999999999999,-0.6499999999999999
2.7208750021994876,-1.8627669343833226,-1.3288229350500311,0.041738573023018866,0.5999999999999999,-0.6499999999999999
2.7335934087671068,-1.8333400042073775,-1.3237313302995724,0.04132356812805038,0.5999999999999999,-0.5999999999999999
2.757465605101004,-1.77337409915306,-1.3135183275297675,0.04054865675339148,0.5999999999999999,-0.5999999999999999
2.7787122228442946,-1.7128541801047787,-1.3035312093209082,0.03856514134799105,0.5999999999999999,-0.5999999999999999
2.7865821865764584,-1.6854196347086279,-1.2996355403787663,0.03760554001685357,0.5999999999999999,-0.5999999999999999
2.7993648356144303,-1.63244895894595,-1.2927023322687639,0.036503728378722844,0.5999999999999999,-0.5999999999999999
2.8096442911823534,-1.5798005340176144,-1.2861121906642152,0.03577544103516739,0.5999999999999999,-0.5999999999999999
2.814016235895234,-1.553342572958568,-1.2828448067906733,0.035469220748926,0.5999999999999999,-0.5999999999999999
2.821300936275835,-1.5000670379803602,-1.2763128024442443,0.03491634462227022,0.5999999999999999,-0.5999999999999999
2.8242189069950987,-1.4732539407252485,-1.2730419796341863,0.034666314782612506,0.5999999999999999,-0.5999999999999999
2.828602274198363,-1.419318518064697,-1.2664864022983715,0.0342071070664236,0.5999999999999999,-0.5999999999999999
2.8310371893116772,-1.3650414364406755,-1.259912150776108,0.033803972883086564,0.5999999999999999,-0.5999999999999999
2.831519998540617,-1.3378023791238192,-1.2566184037951988,0.0336148187201013,0.5999999999999999,-0.5999999999999999
2.83100905541231,-1.2831816572323016,-1.25001884506307,0.0332754941807758,0.5999999999999999,-0.5999999999999999
2.8300132127256736,-1.2558230750757833,-1.2467134965180842,0.03311895032520629,0.5999999999999999,-0.5999999999999999
2.826538641243709,-1.2010652727756754,-1.2400925846296107,0.03283219716962993,0.5999999999999999,-0.5999999999999999
2.8240596314546846,-1.1736886216583595,-1.2367773608495392,0.032705091458099744,0.5999999999999999,-0.5999999999999999
2.81761777597005,-1.1190001400705163,-1.2301385478634184,0.03246503797482081,0.5999999999999999,-0.5999999999999999
2.8092038117409883,-1.0644687232171448,-1.2234892151069787,0.03224993274563226,0.5999999999999999,-0.5999999999999999
2.8042586936666134,-1.0372932173851621,-1.2201612097198167,0.03215633332525769,0.5999999999999999,-0.5999999999999999
2.7929028462932592,-0.9831698849308559,-1.2134985429690905,0.031973766568853756,0.5999999999999999,-0.5999999999999999
2.7864952176114546,-0.9562458445394172,-1.2101642494930531,0.03189373819730501,0.5999999999999999,-0.5999999999999999
2.7722313601588575,-0.9027296188030641,-1.2034903659744338,0.0317422077043199,0.5999999999999999,-0.5999999999999999
2.7560545305826882,-0.8497263069824676,-1.1968099746337995,0.03161178629333139,0.5999999999999999,-0.5999999999999999
2.747256009718936,-0.8234451286297682,-1.1934676482279016,0.03154928788551348,0.5999999999999999,-0.5499999999999998
2.7280112470543583,-0.7722586527467282,-1.1870601068999593,0.030255053342915117,0.5999999999999999,-0.5499999999999998
2.716814499082696,-0.7501523408527129,-1.184961767301588,0.029609392945486812,0.5999999999999999,-0.49999999999999983
2.6925696919386937,-0.7090820628473062,-1.1816391957239012,0.02902997972754795,0.5999999999999999,-0.49999999999999983
2.6663726089827735,-0.6708517980779245,-1.1789614516850788,0.027674416222591036,0.5999999999999999,-0.49999999999999983
2.6519472095873096,-0.6553628019353762,-1.1787637625810379,0.027027906225816967,0.5999999999999999,-0.49999999999999983
2.6215995813460213,-0.6276962122942343,-1.1792556715682938,0.026404663838753617,0.5999999999999999,-0.49999999999999983
2.5899037368866313,-0.6022245725461703,-1.180116732077611,0.026062316743167946,0.5999999999999999,-0.49999999999999983
2.5736392277401428,-0.5900481970687024,-1.1805823180058606,0.025924133934661864,0.5999999999999999,-0.49999999999999983
2.540345652814184,-0.5666983095471823,-1.1815288597060634,0.025682285317497833,0.5999999999999999,-0.49999999999999983
2.5233338323253642,-0.5555173808925252,-1.1820031137846745,0.02557348148824623,0.5999999999999999,-0.49999999999999983
2.4886158555143285,-0.5341552859182026,-1.18294818380499,0.02537416570227391,0.5999999999999999,-0.49999999999999983
2.453018025763378,-0.5141490812611125,-1.1838872311848667,0.025198000635403117,0.5999999999999999,-0.49999999999999983
2.434906000003047,-0.5046656166386041,-1.1843544730294409,0.02511749877857805,0.5999999999999999,-0.49999999999999983
2.398090579651971,-0.4867561842158794,-1.1852846988201158,0.024969498719844108,0.5999999999999999,-0.49999999999999983
2.379400997232398,-0.4783388147491812,-1.185747832858992,0.02490233784145568,0.5999999999999999,-0.49999999999999983
2.341493639966218,-0.4625956323022349,-1.1866704878377905,0.02477697557058267,0.5999999999999999,-0.49999999999999983
2.322290126497146,-0.45527745607149345,-1.1871301297384576,0.024720766174679776,0.5999999999999999,-0.49999999999999983
2.28341968657742,-0.44176383218467563,-1.188046387598272,0.024615553455936023,0.5999999999999999,-0.49999999999999983
2.2439805104591937,-0.4297660909267713,-1.1889589583831452,0.024523365513935858,0.5999999999999999,-0.49999999999999983
2.2240661100750554,-0.42434308454674285,-1.1894139889820008,0.024480879948641787,0.5999999999999999,-0.49999999999999983
2.1838850603884667,-0.41466214256276446,-1.1903218056465117,0.024403599893256578,0.5999999999999999,-0.49999999999999983
2.163633701790683,-0.4104078666621123,-1.1907746371096297,0.024367453677601514,0.5999999999999999,-0.49999999999999983
2.122847125461243,-0.4030829233457263,-1.1916784579164452,0.02430210836127622,0.5999999999999999,-0.49999999999999983
2.0817334405958117,-0.3973475392665717,-1.192579951019802,0.02424301227108927,0.5999999999999999,-0.49999999999999983
2.061073243386092,-0.3950794249928888,-1.1930299038318715,0.024216453115674108,0.5999999999999999,-0.49999999999999983
2.019584911172414,-0.39174896530653974,-1.1939283790089037,0.024167374336024006,0.5999999999999999,-0.49999999999999983
1.977924433239516,-0.39003367675213796,-1.1948251472553628,0.02412372910024385,0.5999999999999999,-0.49999999999999983
1.957049357814161,-0.3897825492866468,-1.1952728706769968,0.024103466229068005,0.5999999999999999,-0.49999999999999983
1.9152482430090525,-0.39049809066141256,-1.1961673039127148,0.024067180166569502,0.5999999999999999,-0.49999999999999983
1.8943378618466498,-0.3914652796530775,-1.1966140367021552,0.024050844846440045,0.5999999999999999,-0.49999999999999983
1.8525366782185888,-0.39461849384024644,-1.197506597408705,0.024020515282678012,0.5999999999999999,-0.49999999999999983
1.8108139505539333,-0.39939447600398337,-1.1983980412652115,0.02399161094970892,0.5999999999999999,-0.49999999999999983
1.7900015322813834,-0.4023901012513878,-1.1988433663522433,0.023979709755590273,0.5999999999999999,-0.49999999999999983
1.7485134289272108,-0.4095932235248863,-1.1997333412784215,0.02395701095413494,0.5999999999999999,-0.49999999999999983
1.7278533382868086,-0.41379842152902463,-1.2001780033046048,0.02394650896703121,0.5999999999999999,-0.49999999999999983
1.686739630439786,-0.4234108065176738,-1.2010667445461054,0.023928102756858305,0.5999999999999999,-0.49999999999999983
1.6459525702678155,-0.4346153816307361,-1.2019547972366196,0.023911266791159624,0.5999999999999999,-0.49999999999999983
1.62570048509528,-0.4408112688650561,-1.2023985817244773,0.023903785508825992,0.5999999999999999,-0.49999999999999983
1.5855176502277388,-0.454378323717286,-1.2032856881094456,0.02388911321778875,0.5999999999999999,-0.49999999999999983
1.565601744445791,-0.46174598633314196,-1.2037290322024958,0.023882890970607917,0.5999999999999999,-0.49999999999999983
1.5261583112418826,-0.47763770069517497,-1.2046153329315574,0.023870720020199965,0.5999999999999999,-0.49999999999999983
1.5066453842246679,-0.48615709428078646,-1.2050583068448395,0.023865132788718713,0.5999999999999999,-0.49999999999999983
1.4680739906435485,-0.5043272721627731,-1.2059439115610295,0.023855245903943834,0.5999999999999999,-0.5499999999999998
1.4301566418023264,-0.5239859127635766,-1.2068291435324394,0.023846959544991053,0.5999999999999999,-0.5499999999999998
1.4117400521126613,-0.5335960583595722,-1.2068081155201376,0.0250465264498847,0.5999999999999999,-0.5499999999999998
1.3767365060168844,-0.5506810738059701,-1.2047056186664986,0.025813299087020347,0.5999999999999999,-0.5999999999999999
1.3597550478633658,-0.5592968701259327,-1.2033563715488755,0.02596197353345797,0.5999999999999999,-0.5999999999999999
1.326929650788479,-0.5765663752204044,-1.2000217003090052,0.02741867287419497,0.5999999999999999,-0.5999999999999999
1.3116394668266795,-0.5839784121781203,-1.1972095272211603,0.028053435840335705,0.5999999999999999,-0.5999999999999999
1.2824314672325132,-0.5986013013565468,-1.1908157471813952,0.028614697188414917,0.5999999999999999,-0.5999999999999999
1.254659684499981,-0.6139335197907909,-1.1841021588493914,0.02888814926787342,0.5999999999999999,-0.5999999999999999
1.2412725027379226,-0.6219667762090436,-1.1807149134744193,0.028992535089148452,0.5999999999999999,-0.5999999999999999
1.2154949003129856,-0.6387864525187362,-1.173926967627114,0.029166245076305053,0.5999999999999999,-0.5999999999999999
1.1910708156676293,-0.6565766864371693,-1.1671382876637475,0.0293236271902777,0.5999999999999999,-0.6499999999999999
1.1793781157789143,-0.6658165231629221,-1.1637455233376166,0.029391673336492508,0.5999999999999999,-0.6499999999999999
1.1578961700963883,-0.6834124436132412,-1.1558459353883141,0.03129840382831128,0.5999999999999999,-0.6499999999999999
1.148451171004502,-0.691188187764546,-1.1509161468066318,0.03179781997457942,0.5999999999999999,-0.6499999999999999
1.1311292032735938,-0.7065571578041411,-1.1405538568294804,0.03228554158746211,0.5999999999999999,-0.6499999999999999
1.1155805097628018,-0.7221874033691821,-1.129985317075,0.03256500154346109,0.5999999999999999,-0.6499999999999999
1.108433977637975,-0.7301408982190862,-1.1246826847228852,0.032673469719688875,0.5999999999999999,-0.6499999999999999
1.0953816480352387,-0.7463023790621648,-1.1140721555084925,0.03287012886322582,0.5999999999999999,-0.6499999999999999
1.0839842220106473,-0.7627373691432722,-1.1034650664329588,0.033041479161910914,0.5999999999999999,-0.7
1.0789066228607398,-0.7710306760221696,-1.0981642025123812,0.0331179898933911,0.5999999999999999,-0.7
1.0715498914559025,-0.7853863416324115,-1.0857642113577484,0.03545747066176297,0.5999999999999999,-0.75
1.0692006044319304,-0.7915286367421702,-1.0787776193739351,0.03700920415767284,0.5999999999999999,-0.75
1.0684984824066135,-0.7997699505966304,-1.0617077722857566,0.038935530128241025,0.5999999999999999,-0.75
1.070446288903433,-0.8061564066909649,-1.043653983221156,0.03965687070234547,0.5999999999999999,-0.8
1.0721937839524671,-0.8088722073498104,-1.0345062012091915,0.04102556882143649,0.5999999999999999,-0.8500000000000001
1.0794940412192144,-0.810004308159862,-1.0133342386400739,0.04302640660895496,0.5999999999999999,-0.8500000000000001
1.0909597535644535,-0.8061620542807589,-0.9893475985033865,0.046577045972544306,0.5999999999999999,-0.8500000000000001
1.0979830623268478,-0.8025585160239348,-0.9765477701305778,0.04726928093401561,0.5999999999999999,-0.8500000000000001
1.1133909813754694,-0.7933699756573251,-0.9505865423368121,0.04813444418950552,0.5999999999999999,-0.8500000000000001
1.1216250078501795,-0.787887557062721,-0.9375453332529614,0.048445975414015185,0.5999999999999999,-0.8500000000000001
1.1389493633698389,-0.77518049208019,-0.9114447597953859,0.04898814654210648,0.5999999999999999,-0.8500000000000001
1.157223777521388,-0.7600985395489213,-0.8853590601352417,0.049453279183982124,0.5999999999999999,-0.8500000000000001
1.1666535988990185,-0.7516379635284595,-0.872324992265152,0.049670326609688065,0.5999999999999999,-0.8500000000000001
1.1859722638229206,-0.7328216507056692,-0.8462752741103496,0.05004789146881006,0.5999999999999999,-0.8500000000000001
1.1958097853014718,-0.7224457588112001,-0.8332592423671202,0.0502304692773734,0.5999999999999999,-0.8500000000000001
1.2157105797749355,-0.6997149790701006,-0.8072441380708082,0.05055097062781955,0.5999999999999999,-0.8500000000000001
1.2257204365870171,-0.6873458981676076,-0.7942447161486801,0.05069344345243776,0.5999999999999999,-0.8500000000000001
1.2457274423786093,-0.6605647832025586,-0.7682588387615645,0.05095397789338052,0.5999999999999999,-0.8500000000000001
1.2655349648417997,-0.6310313690144906,-0.7422892469833438,0.051196900221952335,0.5999999999999999,-0.8500000000000001
1.2752950905900302,-0.615224988219045,-0.729309991042729,0.05129969941831369,0.5999999999999999,-0.8
1.294389469470865,-0.5815262712058177,-0.7033615090793262,0.05148528144231235,0.5999999999999999,-0.8
1.312570378360492,-0.5454522233881934,-0.6776340480763451,0.04975615115735388,0.5999999999999999,-0.75
1.3206083553802566,-0.5281208094382308,-0.665926614954585,0.048931627139384704,0.5999999999999999,-0.75
1.3349839542505182,-0.4942915085295725,-0.6442414244716991,0.04616206954257818,0.5999999999999999,-0.7
1.346780924243115,-0.46290733560045355,-0.6255863034888958,0.043494303599983075,0.5999999999999999,-0.6499999999999999
1.351621503218468,-0.44865676614209604,-0.6176728884649004,0.042527893961520125,0.5999999999999999,-0.6499999999999999
1.3597851256768578,-0.42189332695686305,-0.603714378963809,0.039832727536064594,0.5999999999999999,-0.5999999999999999
1.3629976785299824,-0.409905972316193,-0.5979847204928931,0.03908060068386221,0.5999999999999999,-0.5999999999999999
1.3679039206281745,-0.3886215282885782,-0.5887368144188853,0.03635626979609019,0.5999999999999999,-0.5499999999999998
1.371279004557979,-0.3697725628200303,-0.5816493309405446,0.03533397064577759,0.5999999999999999,-0.5499999999999998
1.3726769870397435,-0.36038520777856353,-0.578296633427811,0.035003641973587074,0.5999999999999999,-0.5499999999999998
1.3743773274103617,-0.3438012845667619,-0.5732105463741595,0.03268525275626599,0.5999999999999999,-0.5499999999999998
1.374699616312838,-0.33665182937706567,-0.5715186425285521,0.03215216424743472,0.5999999999999999,-0.5499999999999998
1.3748254046637673,-0.3227701362979514,-0.5685498637197639,0.03144805448304466,0.5999999999999999,-0.5499999999999998
1.37441191501622,-0.3089165771783697,-0.5657423894993926,0.030926083649209124,0.5999999999999999,-0.5499999999999998
1.3740202684196152,-0.3019414055393786,-0.5643499637877555,0.030697565696019335,0.5999999999999999,-0.5499999999999998
1.372874200573652,-0.287873021624067,-0.5615624955726645,0.030287095467402603,0.5999999999999999,-0.5499999999999998
1.372119817840226,-0.28078184755781027,-0.5601646660904969,0.03009569158593295,0.5999999999999999,-0.5499999999999998
1.3702472484766042,-0.2664949088253049,-0.557359053665852,0.029752211218479596,0.5999999999999999,-0.5499999999999998
1.3691283971737696,-0.2593041186730519,-0.5559513358629171,0.02959472951619424,0.5999999999999999,-0.5499999999999998
1.3665240600703505,-0.24484051562810605,-0.5531267031224685,0.029307143940024538,0.5999999999999999,-0.5499999999999998
1.365037981358028,-0.23757322440610917,-0.5517101324251804,0.029176771692400294,0.5999999999999999,-0.5499999999999998
1.3616970032225975,-0.22298033342723958,-0.5488691837420071,0.028935761130282067,0.5999999999999999,-0.5499999999999998
1.3578630840556032,-0.20832872986799655,-0.5460188707196542,0.02872105585127116,0.5999999999999999,-0.5499999999999998
1.355761035483322,-0.2009876992626395,-0.5445905322756553,0.028621735410897298,0.5999999999999999,-0.5499999999999998
1.3511867843707233,-0.18628761647529407,-0.5417280674050409,0.02844238532419907,0.5999999999999999,-0.5499999999999998
1.3487146777792651,-0.17893391495017957,-0.5402941586831447,0.028359533403337744,0.5999999999999999,-0.5499999999999998
1.3434010195674966,-0.16423338760640088,-0.537421493926638,0.028210325081601484,0.5999999999999999,-0.5499999999999998
1.3405598585530996,-0.15689148018587357,-0.5359829147035978,0.028141421055878135,0.5999999999999999,-0.49999999999999983
1.3345101349114348,-0.14223754726624474,-0.5331017297321594,0.028015396826571504,0.5999999999999999,-0.49999999999999983
1.331239023941693,-0.13541904690766943,-0.5319367185100128,0.026882242889202823,0.5999999999999999,-0.49999999999999983
1.323957094210658,-0.12527543407268227,-0.531893884736172,0.025960947023200953,0.5999999999999999,-0.49999999999999983
1.3201061305905364,-0.12080462812817618,-0.5322162599467364,0.025752427998451788,0.5999999999999999,-0.49999999999999983
1.3120846052668438,-0.11238822844641926,-0.5330570288839991,0.02548029772173188,0.5999999999999999,-0.49999999999999983
1.3079283864213715,-0.10836469947986403,-0.5335125793092614,0.02537560183820209,0.5999999999999999,-0.49999999999999983
1.2993432923582584,-0.10062947249598737,-0.534440388476932,0.025193954790002637,0.5999999999999999,-0.49999999999999983
1.2904112044151186,-0.09329746840831167,-0.5353710494411508,0.02503579259642552,0.5999999999999999,-0.49999999999999983
1.285820625277196,-0.08978361914792772,-0.5358351490331675,0.024963645584038074,0.5999999999999999,-0.49999999999999983
1.2764011626723026,-0.0830678812959164,-0.5367600165258629,0.0248320136385638,0.5999999999999999,-0.49999999999999983
1.2715766379097884,-0.07986856839543144,-0.5372207322823636,0.024771935712651683,0.5999999999999999,-0.49999999999999983
1.261709076854931,-0.07379424158422969,-0.5381389364212338,0.02466055875747175,0.5999999999999999,-0.49999999999999983
1.2566704909706625,-0.0709219840983516,-0.5385965313595178,0.024611087825564093,0.5999999999999999,-0.44999999999999984
1.2463949214617194,-0.06551526254020533,-0.539509000674638,0.024518709539889327,0.5999999999999999,-0.44999999999999984
1.2356887929657774,-0.06287781536336541,-0.5419725651095509,0.023003362993125442,0.5999999999999999,-0.44999999999999984
1.230166873414815,-0.06291577836923039,-0.5440287098547688,0.02271575648055224,0.5999999999999999,-0.39999999999999986
1.2189309788044655,-0.06403430968954263,-0.5485525014404758,0.022405761300967608,0.5999999999999999,-0.39999999999999986
1.2073150456672381,-0.06833621847755225,-0.5547951790780965,0.020941312861744832,0.5999999999999999,-0.39999999999999986
1.2013508588315847,-0.07192871283590077,-0.5587569758917003,0.02063771771848355,0.5999999999999999,-0.39999999999999986
1.1892439935916195,-0.08033645793613808,-0.5671034711767353,0.02028108325246092,0.5999999999999999,-0.39999999999999986
1.1831194607502846,-0.08498845640610188,-0.5713548170862661,0.02015060307380434,0.5999999999999999,-0.39999999999999986
1.1707545414201048,-0.09505535619081742,-0.579898993604168,0.019929571097904164,0.5999999999999999,-0.39999999999999986
1.1582608273255095,-0.10609477942117289,-0.5884564815623358,0.019741912924711835,0.5499999999999998,-0.39999999999999986
1.1519743735080066,-0.11197350345345268,-0.5927351418434875,0.01965537286467023,0.5499999999999998,-0.39999999999999986
1.1393401071540306,-0.12444649104275146,-0.6012904035410256,0.019661842622634484,0.49999999999999983,-0.39999999999999986
1.133012529783369,-0.13104611497977534,-0.6055711501190255,0.020024760703305944,0.44999999999999984,-0.39999999999999986
1.1203779831679805,-0.14498269819985926,-0.6141488588711588,0.02108749955455025,0.44999999999999984,-0.39999999999999986
1.1078346555192644,-0.1599190992977164,-0.6227651208789287,0.02271795073021865,0.39999999999999986,-0.39999999999999986
1.101619494776335,-0.16776740922607272,-0.6270937924142683,0.023859842746710935,0.39999999999999986,-0.39999999999999986
1.0893368043622467,-0.18423166013568704,-0.635800947482807,0.02641506938036975,0.34999999999999987,-0.39999999999999986
1.0832888418093558,-0.19285168858008309,-0.640184967989524,0.027893409258919144,0.34999999999999987,-0.39999999999999986
1.0714103930897476,-0.21087124603737287,-0.6490223145608776,0.031371172127344416,0.34999999999999987,-0.39999999999999986
1.0655975119496421,-0.2202750431341197,-0.6534804164576595,0.03317814551961984,0.34999999999999987,-0.39999999999999986
1.0542270588115885,-0.23986027620681108,-0.662474915173259,0.03661303018934037,0.34999999999999987,-0.39999999999999986
1.04319588170907,-0.26046804586731354,-0.6715683449678707,0.03981635020312546,0.34999999999999987,-0.39999999999999986
1.037807474117221,-0.2711493452754344,-0.6761501035388628,0.04133570883851623,0.34999999999999987,-0.39999999999999986
1.0272852424703351,-0.2932556652253122,-0.6853797303293641,0.04422259136516504,0.34999999999999987,-0.39999999999999986
1.017103658098953,-0.3163379815243927,-0.6946926978141912,0.046912752496684584,0.34999999999999987,-0.39999999999999986
1.012141040070608,-0.3282397867936813,-0.6993784325311645,0.04818988774142796,0.34999999999999987,-0.39999999999999986
1.002474266582749,-0.3527521520998885,-0.7088058887053323,0.05061489041614875,0.34999999999999987,-0.39999999999999986
0.993154299685839,-0.3781953410431089,-0.7183031422212647,0.05287756688151157,0.34999999999999987,-0.39999999999999986
0.9886254659489966,-0.39126065530671683,-0.7230764452002034,0.053950543495098424,0.34999999999999987,-0.39999999999999986
0.9798327021809556,-0.4180668406357595,-0.7326696665547481,0.055986182301063,0.34999999999999987,-0.39999999999999986
0.9713972115547949,-0.4457578848738655,-0.7423217732663112,0.05788607225112963,0.34999999999999987,-0.39999999999999986
0.9673149227237832,-0.4599297979068084,-0.7471686133043152,0.05878667940813531,0.34999999999999987,-0.39999999999999986
0.9594246276410474,-0.4889150681500761,-0.7569015047208727,0.0604976166150365,0.34999999999999987,-0.39999999999999986
0.9556179748793593,-0.5037240323437665,-0.7617866207544592,0.06131062276743382,0.34999999999999987,-0.44999999999999984
0.9482855945619255,-0.5339624930340413,-0.7715922615505302,0.06285403095938158,0.34999999999999987,-0.44999999999999984
0.942369325248355,-0.5630388250844988,-0.779747323085102,0.06559141192187368,0.34999999999999987,-0.44999999999999984
0.9400389674837673,-0.5770342426630797,-0.783121455671109,0.06649007896337755,0.34999999999999987,-0.44999999999999984
0.9360342795134896,-0.6050876449722343,-0.7895526731301814,0.0679934918893883,0.34999999999999987,-0.44999999999999984
0.9327256061265784,-0.6335213147243751,-0.7958804074051145,0.06931984719004758,0.34999999999999987,-0.49999999999999983
0.931311304791902,-0.6478856746563183,-0.7990522651296934,0.07063600070557019,0.34999999999999987,-0.49999999999999983
0.9307677850760221,-0.6741546903973624,-0.8028938482227299,0.07273366659436542,0.34999999999999987,-0.49999999999999983
0.9310716803013966,-0.686952717593384,-0.804432389591573,0.07346142722661197,0.34999999999999987,-0.5499999999999998
0.9324896917316718,-0.712372306214354,-0.8072636845150363,0.07565955008538183,0.34999999999999987,-0.5499999999999998
0.9367863851230138,-0.7349624469384721,-0.8075021312578119,0.07756751605723489,0.34999999999999987,-0.5999999999999999
0.9395875515492988,-0.7457878119347956,-0.807254322288784,0.07826525963656328,0.34999999999999987,-0.5999999999999999
0.9460835097498956,-0.7670191855105086,-0.8065719381012537,0.08038313677918241,0.34999999999999987,-0.6499999999999999
0.9506169604965969,-0.776287795006862,-0.8051244314970099,0.08152211912431417,0.34999999999999987,-0.7
0.9616683286473876,-0.7927657843504936,-0.8008385997714553,0.08445265509150945,0.34999999999999987,-0.7
0.9763127428462112,-0.8051149790249631,-0.7936544529372191,0.08769226527386043,0.34999999999999987,-0.75
0.9853212940020658,-0.8092173992203313,-0.7886050080100513,0.0889999774830218,0.34999999999999987,-0.75
1.0054792980776244,-0.8145483275891848,-0.7770463879504592,0.09230167530451461,0.34999999999999987,-0.75
1.029195112573164,-0.8147459655703668,-0.7626696286260417,0.09462743074036106,0.34999999999999987,-0.75
1.0416678226481872,-0.8137221106804332,-0.7552009438297818,0.09540157861953591,0.34999999999999987,-0.8
1.0678066227566894,-0.8092354636792864,-0.7396482940113742,0.09824664905835045,0.34999999999999987,-0.8
1.0968486936915387,-0.7991876091625172,-0.7216213152992106,0.10048871386896518,0.34999999999999987,-0.8
1.1117956397430018,-0.7928188508735952,-0.7123610114488321,0.10125206900088057,0.34999999999999987,-0.8
1.1420747309468209,-0.7778117574063323,-0.6937349178611281,0.10253162984047726,0.34999999999999987,-0.8
1.1725811165110158,-0.7599120223553747,-0.6751102907413107,0.10366216058209832,0.34999999999999987,-0.8
1.1878443785247725,-0.7498894874201022,-0.6658155984597389,0.10419237737577514,0.34999999999999987,-0.8
1.2182636407003025,-0.727701152474423,-0.6472687811781124,0.10518646904325835,0.34999999999999987,-0.8
1.2333713305194147,-0.7155348523629383,-0.6380166409334156,0.10565968868251296,0.34999999999999987,-0.75
1.2632627288072038,-0.6890622396409641,-0.6195538154425648,0.10655321563265696,0.34999999999999987,-0.75
1.292401076079023,-0.66010506322817,-0.601333221446525,0.10568347314095616,0.34999999999999987,-0.7
1.3059163499308395,-0.6461738608321632,-0.5933128869813502,0.10530548417127916,0.34999999999999987,-0.6499999999999999
1.331243888445927,-0.6189601013920182,-0.5789235806254625,0.10346813981499836,0.34999999999999987,-0.6499999999999999
1.3539611107141147,-0.5937678163447211,-0.5673232376811348,0.10172045097893134,0.34999999999999987,-0.5999999999999999
1.3641916091355604,-0.58247851802466,-0.5628527025464987,0.10109543950041322,0.34999999999999987,-0.5999999999999999
1.3830150569259176,-0.5615756078199702,-0.5557253205090547,0.09919661269463098,0.34999999999999987,-0.5499999999999998
1.3914676088060325,-0.5524508617911574,-0.5533488634998749,0.09879063528160514,0.34999999999999987,-0.49999999999999983
1.406670639529592,-0.5368138489318124,-0.5507072537443611,0.0968714961059075,0.34999999999999987,-0.49999999999999983
1.413599175251958,-0.5299763249132462,-0.5501830456940113,0.09596975559132348,0.34999999999999987,-0.49999999999999983
1.4253960364642546,-0.520516645587224,-0.5520810650594692,0.09460474908155247,0.34999999999999987,-0.49999999999999983
1.4360393693341387,-0.5126834335287446,-0.555208080789789,0.09412941248963336,0.34999999999999987,-0.49999999999999983
1.4411215297578195,-0.5088882945509616,-0.5568961954823672,0.09397914288987408,0.34999999999999987,-0.49999999999999983
1.4509051634716057,-0.501299864126917,-0.5603398801562651,0.09373183062600643,0.34999999999999987,-0.49999999999999983
1.46021453574064,-0.49363663147123976,-0.5638062906514048,0.09351643445175728,0.34999999999999987,-0.49999999999999983
1.464694897394954,-0.48977053558595196,-0.5655397211947997,0.09341612138950894,0.34999999999999987,-0.5499999999999998
1.473307236134855,-0.4819742907391178,-0.5690030449049828,0.09322820310946878,0.34999999999999987,-0.5499999999999998
1.4776935535011901,-0.477246916835918,-0.5702660202895755,0.09428708749689096,0.34999999999999987,-0.5499999999999998
1.4870789805042592,-0.4645205910935456,-0.570894772676326,0.09482558110217632,0.34999999999999987,-0.5499999999999998
1.4962282300100223,-0.45050286453911714,-0.5709270576353078,0.09489934809095368,0.34999999999999987,-0.5499999999999998
1.5006227389051692,-0.44326694040285003,-0.5708812504646952,0.09489366655167708,0.34999999999999987,-0.5499999999999998
1.5089983264574869,-0.4284818854982644,-0.570752851701597,0.0948635394341979,0.34999999999999987,-0.5499999999999998
1.5167953340671294,-0.4133456441511792,-0.5706081254749074,0.09482700083442386,0.34999999999999987,-0.5499999999999998
1.5204711947068184,-0.4056580659581028,-0.5705336886873615,0.0948088824910549,0.34999999999999987,-0.49999999999999983
1.5274121007777095,-0.38991708082626675,-0.5702666970832104,0.09415121820562289,0.34999999999999987,-0.49999999999999983
1.532720089260259,-0.37799525053701605,-0.5723624607734279,0.09306887878294068,0.34999999999999987,-0.49999999999999983
1.5349699042887728,-0.3727956092356329,-0.573874163158171,0.09286080490855353,0.34999999999999987,-0.49999999999999983
1.5389567853972406,-0.36286466791981015,-0.5771662797153763,0.0926307786147107,0.34999999999999987,-0.49999999999999983
1.540730450707412,-0.35800802786237657,-0.5788618578232549,0.09254889041698877,0.34999999999999987,-0.49999999999999983
1.5438705838563331,-0.34841467894542083,-0.5822788766441089,0.09241033151008804,0.34999999999999987,-0.49999999999999983
1.5464813424341324,-0.3389602098855624,-0.5857035734386336,0.09228662795054277,0.34999999999999987,-0.49999999999999983
1.5475913560668313,-0.3342836417485832,-0.5874154932499169,0.09222852987505115,0.34999999999999987,-0.49999999999999983
1.5494229464534428,-0.32504809257649264,-0.5908368612636941,0.09211829153082962,0.34999999999999987,-0.49999999999999983
1.5507426746255086,-0.31597834119935225,-0.594254613240373,0.0920181980588094,0.34999999999999987,-0.49999999999999983
1.551212510284671,-0.3115111065936663,-0.5959620913019297,0.09197086755771589,0.34999999999999987,-0.49999999999999983
1.55177601183582,-0.3027241198457546,-0.5993745268692747,0.09187948866287832,0.34999999999999987,-0.49999999999999983
1.5518715649660475,-0.2984079144730824,-0.6010794803208193,0.09183555938633392,0.34999999999999987,-0.49999999999999983
1.5516946912040848,-0.2899418746947707,-0.6044869640648163,0.09175331874547432,0.34999999999999987,-0.49999999999999983
1.5514242970760672,-0.28579596837770654,-0.6061896068184565,0.09171552286772255,0.34999999999999987,-0.49999999999999983
1.5505249064620699,-0.27768841640055286,-0.6095926744736899,0.09164155448605893,0.34999999999999987,-0.49999999999999983
1.5491543335730853,-0.26984285716323647,-0.6129930626715554,0.09157533274230678,0.34999999999999987,-0.49999999999999983
1.548295491463456,-0.2660222125595576,-0.614692306478362,0.09154195104757057,0.34999999999999987,-0.49999999999999983
1.546236239426592,-0.25859756020989655,-0.6180890434988471,0.09148164783440105,0.34999999999999987,-0.49999999999999983
1.5437304152220268,-0.25147329160197496,-0.6214834859883367,0.09142571850548886,0.34999999999999987,-0.49999999999999983
1.5423132863061557,-0.2480289612860656,-0.6231799090222263,0.0913975418188423,0.34999999999999987,-0.49999999999999983
1.5391576856705396,-0.2413842357684669,-0.6265712442461306,0.09134695872775134,0.34999999999999987,-0.49999999999999983
1.5374220283977362,-0.23818767761462248,-0.6282662002536277,0.09132167688596982,0.34999999999999987,-0.49999999999999983
1.5336423210383534,-0.23205609795353033,-0.6316546817674076,0.09127564909800079,0.34999999999999987,-0.49999999999999983
1.5294618065644625,-0.22628343901882433,-0.6350414390830994,0.09123211084931271,0.34999999999999987,-0.49999999999999983
1.5272251652712838,-0.22353603634905816,-0.636734216691309,0.09121110410994948,0.34999999999999987,-0.49999999999999983
1.522467228830146,-0.21832722210976882,-0.6401186034000967,0.09117114348103794,0.34999999999999987,-0.49999999999999983
1.5173409636127675,-0.21351140145737962,-0.6435015039104361,0.09113585481574393,0.34999999999999987,-0.49999999999999983
1.5146439960957587,-0.21125480689679757,-0.6451924386226542,0.0911191928581333,0.34999999999999987,-0.49999999999999983
1.5089913461783462,-0.20705091947984736,-0.648573415751944,0.09108643006201289,0.34999999999999987,-0.49999999999999983
1.5030057478183456,-0.2032697951913744,-0.6519531572365791,0.09105637991298354,0.34999999999999987,-0.44999999999999984
1.4999116628110483,-0.20142088134474395,-0.6535384917134415,0.09049813207878765,0.34999999999999987,-0.44999999999999984
1.4928884088254157,-0.20216486405378478,-0.6591678580448994,0.08952495387530945,0.34999999999999987,-0.44999999999999984
1.4853215966083428,-0.20519509383863566,-0.6658333752694152,0.08921510320640313,0.34999999999999987,-0.44999999999999984
1.4814076746744735,-0.2071212996781428,-0.6692716724409837,0.08912554729899869,0.34999999999999987,-0.44999999999999984
1.4733655246523931,-0.2115758275632647,-0.6762066991514526,0.08898352806873855,0.34999999999999987,-0.44999999999999984
1.4692467078651386,-0.2140773632829221,-0.6796843085148128,0.08892251628401993,0.34999999999999987,-0.44999999999999984
1.4608296282089344,-0.2196104899830125,-0.6866432474845874,0.08880777782884353,0.34999999999999987,-0.44999999999999984
1.4565369357008404,-0.222640214239966,-0.6901225811418685,0.08875219311663762,0.34999999999999987,-0.44999999999999984
1.4477964191189052,-0.22922680089512099,-0.697079371289681,0.0886495065136026,0.34999999999999987,-0.49999999999999983
1.4388680856219285,-0.23651400742818063,-0.7040497357846704,0.08921649167057066,0.34999999999999987,-0.49999999999999983
1.4346348027506328,-0.2387541822752292,-0.7064960604720123,0.08975784191152236,0.34999999999999987,-0.49999999999999983
1.4263623864340995,-0.2420767993003142,-0.7104019787976239,0.09015913636377126,0.34999999999999987,-0.49999999999999983
1.4222412846289063,-0.24364161152971356,-0.7121631069941021,0.09022406945848171,0.34999999999999987,-0.5499999999999998
1.4139643740132917,-0.24699075092313,-0.7155742769452489,0.09028570858866625,0.34999999999999987,-0.5499999999999998
1.405801679690416,-0.24988250221460778,-0.7183825790813482,0.09149470209968036,0.34999999999999987,-0.5499999999999998
1.402018706334805,-0.24982870324686768,-0.7187308841921444,0.09192056611509514,0.34999999999999987,-0.5499999999999998
1.3946164764619355,-0.24900436452184413,-0.7188114496372616,0.09230863037498527,0.34999999999999987,-0.5499999999999998
1.3872679648006794,-0.24809712076394808,-0.718639488886085,0.09249000833614573,0.34999999999999987,-0.5499999999999998
1.3835964931289746,-0.2477139221268616,-0.7185290229996932,0.09256249671231809,0.34999999999999987,-0.5499999999999998
1.376254950539322,-0.24714012302314023,-0.7182966434835834,0.09269136954923374,0.34999999999999987,-0.5499999999999998
1.3689198379813587,-0.24684245460346244,-0.71806290540273,0.09280245604079007,0.34999999999999987,-0.5499999999999998
1.3652574991701847,-0.24679867784215562,-0.7179470800984489,0.09285553007172498,0.34999999999999987,-0.5499999999999998
1.3579495557567376,-0.24692157536094045,-0.7177182728613303,0.09295694763912676,0.34999999999999987,-0.5499999999999998
1.350672350656409,-0.2473245370185774,-0.7174934341968023,0.09304962030997088,0.34999999999999987,-0.5499999999999998
1.347048481300861,-0.2476309370608547,-0.7173824437682794,0.09309519947101186,0.34999999999999987,-0.5499999999999998
1.3398369051324979,-0.2484510322391775,-0.7171630979033133,0.09318019106846098,0.34999999999999987,-0.5499999999999998
1.332681796158004,-0.24954724463637373,-0.7169472729299575,0.09326002345834095,0.34999999999999987,-0.5499999999999998
1.3291287474695672,-0.2501975060044042,-0.7168405138925616,0.09329920060530439,0.34999999999999987,-0.5499999999999998
