4.882402135282285,0.024803687925937262,0.0007516867102742575,-0.05419747260748453,1.0,0.0
4.878066476251262,0.024864030948590306,0.0007518235925637606,-0.054197511953649524,1.0,0.0
4.875898645652781,0.024894226343568852,0.0007518898141308794,-0.05419754363810991,1.0,0.0
4.873730813509329,0.024924420484825058,0.0007519564003563017,-0.054197497660675165,1.0,0.0
4.869395155740965,0.02498483138972052,0.000752093247571306,-0.05419741484917329,1.0,0.0
4.867227329667915,0.025015056544798207,0.0007521596528361485,-0.054197570416658625,1.0,0.0
4.862891679360253,0.02507557879924938,0.000752294322667435,-0.05419736450836776,1.0,0.0
4.86072385756459,0.025105863410355478,0.0007523632496752031,-0.05419726203504216,1.0,0.0
4.856388214822592,0.02516646598062717,0.0007524961355602766,-0.054197240585168505,1.0,0.0
4.854220393734051,0.025196759420739897,0.0007525639074983381,-0.05419718760751824,1.0,0.0
4.849884754132743,0.025257425362240384,0.000752700193214384,-0.054197237305937396,1.0,0.0
4.847716936486249,0.025287737093524488,0.0007527656188296428,-0.05419716912723471,1.0,0.0
4.8455491195606815,0.025318072670074722,0.0007528328877309809,-0.05419727663975782,1.0,0.0
4.841213485988569,0.0253788554728589,0.0007529700127351102,-0.054197165937564185,1.0,0.0
4.839045672111775,0.025409267129088697,0.0007530360228894528,-0.05419711565316132,1.0,0.0
4.834710051799225,0.025470089118613298,0.0007531719422521066,-0.054196919251051856,1.0,0.0
4.832542241726574,0.025500541105589494,0.0007532400814616036,-0.05419708602416473,1.0,0.0
4.828206622023342,0.025561421088529022,0.0007533726937729579,-0.05419697301479687,1.0,0.0
4.8260388140016905,0.025591871234023428,0.0007534413361330872,-0.05419702844595897,1.0,0.0
4.823871007960556,0.025622390431416713,0.0007535101693529889,-0.05419698100054959,1.0,0.0
4.819535394553737,0.025683417584596174,0.0007536431177671554,-0.054196870688197674,1.0,0.0
4.817367588206799,0.02571391562088925,0.0007537114111275667,-0.05419702225552414,1.0,0.0
4.813031975163925,0.025775002183592407,0.0007538471777484013,-0.05419698063965139,1.0,0.0
4.810864167766299,0.025805558434582414,0.0007539133598409853,-0.05419709362730396,1.0,0.0
4.806528552650514,0.0258667059345566,0.0007540504302495643,-0.05419695782119871,1.0,0.0
4.80436074769013,0.025897289019451597,0.0007541175325707083,-0.05419697595649575,1.0,0.0
4.802192942969221,0.0259278914894739,0.0007541836332516372,-0.05419701568253865,1.0,0.0
4.797857333666841,0.02598915165945454,0.0007543203985184155,-0.05419697203222262,1.0,0.0
4.795689530177797,0.02601980084433302,0.0007543880850479079,-0.05419695089558507,1.0,0.0
4.791353919676189,0.02608112499011041,0.000754521375784023,-0.05419711192418131,1.0,0.0
4.789186115379891,0.026111802664406863,0.0007545903044418045,-0.054196866926732534,1.0,0.0
4.78701831227443,0.026142488639898615,0.0007546584226073572,-0.05419712848089597,1.0,0.0
4.78268270596823,0.026203919560182354,0.0007547917094020695,-0.054197135851892675,1.0,0.0
4.780514902512688,0.02623464332082954,0.0007548604115531488,-0.05419694289344057,1.0,0.0
4.776179295811219,0.026296154231959506,0.0007549957387275041,-0.05419688912551868,1.0,0.0
4.774011492761828,0.026326916292059157,0.0007550622825085451,-0.054196909498187784,1.0,0.0
4.769675887564758,0.026388461838457795,0.000755199170894838,-0.054196872608073265,1.0,0.0
4.767508083833979,0.026419260865387158,0.0007552662783515407,-0.054196929442504205,1.0,0.0
4.765340279563274,0.026450066935128597,0.0007553326593441323,-0.05419703563312828,1.0,0.0
4.761004671374566,0.026511678388397592,0.0007554689489976951,-0.054196918313529796,1.0,0.0
4.758836865987669,0.02654251860930744,0.0007555364921938423,-0.05419696614364011,1.0,0.0
4.754501259413017,0.026604225104277686,0.0007556702079123401,-0.054196741559494166,1.0,0.0
4.75233345887698,0.026635090481736685,0.0007557387308835262,-0.05419685360304016,1.0,0.0
4.747997854537996,0.0266968472094985,0.0007558729430247046,-0.05419693168457007,1.0,0.0
4.745830050341305,0.026727744008084524,0.000755939953696716,-0.05419695005648539,1.0,0.0
4.743662246452928,0.026758656683253453,0.0007560082637996235,-0.05419703144364574,1.0,0.0
4.739326638267108,0.026820499052479744,0.000756142938847959,-0.05419700441078401,1.0,0.0
4.737158835960009,0.026851446947949355,0.0007562097107041144,-0.05419681266346266,1.0,0.0
4.732823230908592,0.02691333759351022,0.0007563455488182047,-0.054197032131826584,1.0,0.0
4.730655426318875,0.026944291378548733,0.0007564123691349289,-0.05419698806704498,1.0,0.0
4.726319820399224,0.027006337328016695,0.0007565473806776524,-0.054196982654614256,1.0,0.0
4.724152016776463,0.027037370393498655,0.0007566158379584964,-0.054197020970860876,1.0,0.0
4.721984213232673,0.027068393065533006,0.0007566831798770934,-0.05419710868275396,1.0,0.0
4.717648605754388,0.027130565191165426,0.0007568180355195242,-0.054196973135165694,1.0,0.0
4.715480803542193,0.027161641043934977,0.0007568863210265508,-0.0541969374043354,1.0,0.0
4.711145202986418,0.02722383447698787,0.0007570212857427316,-0.05419691113224112,1.0,0.0
4.708977403514382,0.027254969993260665,0.0007570886075770611,-0.05419690160304125,1.0,0.0
4.706809604732805,0.02728607843139395,0.0007571564900624717,-0.054196975224305666,1.0,0.0
4.702474009694633,0.027348320908333758,0.0007572914649683904,-0.05419683032722955,1.0,0.0
4.700306211121141,0.027379480571826598,0.0007573583293845054,-0.054196871168290306,1.0,0.0
4.695970610976672,0.027441813489733628,0.0007574943346733143,-0.05419689989233101,1.0,0.0
4.693802809935349,0.02747301422202412,0.0007575618821474839,-0.054196951576784835,1.0,0.0
4.691635010505008,0.027504220267765854,0.0007576286915991215,-0.05419698357779423,1.0,0.0
4.687299412640781,0.027566667818145388,0.0007577645562488744,-0.05419682645329171,1.0,0.0
4.6851316135924685,0.02759791733026377,0.0007578324568370265,-0.05419694356426508,1.0,0.0
4.6807960149304355,0.027660467474862543,0.0007579666237957916,-0.05419697163461623,1.0,0.0
4.678628215473617,0.027691713494880713,0.0007580348428323225,-0.05419690681245837,1.0,0.0
4.6742926138831296,0.027754275920918333,0.0007581694336734612,-0.054197046057569365,1.0,0.0
4.67212481292845,0.02778559495937125,0.0007582363933643643,-0.05419700074872669,1.0,0.0
4.66995701233929,0.027816918627812683,0.0007583045448542602,-0.05419695906497335,1.0,0.0
4.665621410339183,0.02787958560074509,0.0007584398933401237,-0.054196994261751064,1.0,0.0
4.663453606293184,0.02791096776147316,0.0007585068888547042,-0.0541970839896182,1.0,0.0
4.659117999660296,0.02797369858787081,0.0007586430910289099,-0.054197085131088896,1.0,0.0
4.656950198387126,0.028005085395447018,0.0007587105602936406,-0.05419699997279692,1.0,0.0
4.652614595812718,0.028067923993096624,0.0007588445413253542,-0.054196950911165276,1.0,0.0
4.6504467940820255,0.02809931848297023,0.0007589129570455544,-0.054197047100832396,1.0,0.0
4.648278992493238,0.028130736779399992,0.0007589805422186791,-0.054197093046138844,1.0,0.0
4.643943391309853,0.028193616889788737,0.000759113692961999,-0.054196971325731313,1.0,0.0
4.64177559227099,0.02822508266834617,0.0007591820943059213,-0.05419690897321905,1.0,0.0
4.637440002419601,0.028288051923191847,0.0007593165607423513,-0.054196798790963285,1.0,0.0
4.635272212017081,0.02831955421368026,0.0007593830713457095,-0.054196772536104776,1.0,0.0
4.633104421717576,0.028351083151628587,0.0007594513977684514,-0.05419676674499008,1.0,0.0
4.628768845591963,0.028414096501656078,0.0007595860399841614,-0.05419666179886051,1.0,0.0
4.626601059675462,0.028445643965401095,0.0007596523324154836,-0.05419674277691433,1.0,0.0
4.622265481436492,0.02850879542162116,0.0007597892881239243,-0.0541967338671987,1.0,0.0
4.620097691528699,0.02854037441547151,0.0007598562454746993,-0.0541967206017091,1.0,0.0
4.617929902531322,0.02857195415330669,0.0007599221173371085,-0.054196766949819786,1.0,0.0
4.61359432171692,0.028635176751595746,0.0007600585621585498,-0.05419686277424085,1.0,0.0
4.611426530163978,0.028666841704521433,0.0007601263676312309,-0.05419687678804652,1.0,0.0
4.607090946491992,0.02873015883076814,0.0007602595762215003,-0.05419684476277187,1.0,0.0
4.604923155731676,0.028761823131908348,0.0007603283981429954,-0.054196718376469555,1.0,0.0
4.602755365700395,0.02879349165972953,0.0007603962471256498,-0.05419680128976001,1.0,0.0
4.598419786639647,0.028856882197944567,0.0007605289351462208,-0.05419679537384381,1.0,0.0
4.596252000431961,0.028888565907227173,0.0007605973507256447,-0.05419670376277552,1.0,0.0
4.591916427941672,0.028952027221894668,0.000760731972114459,-0.054196629318722156,1.0,0.0
4.589748639990871,0.02898377816564767,0.0007607980566470829,-0.05419673106818523,1.0,0.0
4.585413063369163,0.0290472541082207,0.0007609348454487019,-0.054196888639259866,1.0,0.0
4.58324527298921,0.029079057647235854,0.000761001771274139,-0.054196886351244755,1.0,0.0
4.581077481649054,0.02911084434757353,0.000761067668200055,-0.05419688331471928,1.0,0.0
4.5767419003980505,0.029174470639424945,0.0007612046472185163,-0.054196838712887496,1.0,0.0
4.57457411036428,0.02920631752595475,0.0007612718704710364,-0.054196763941920745,1.0,0.0
4.572406320446465,0.029238167905627853,0.0007613378319742958,-0.05419681272402377,1.0,0.0
4.568070737209185,0.029301922697281872,0.000761474718674382,-0.05419699147128232,1.0,0.0
4.565902944156443,0.02933384742281315,0.0007615426909798328,-0.054196944814075554,1.0,0.0
4.5615673572467585,0.02939764311181383,0.0007616755145959386,-0.05419702437079277,1.0,0.0
4.5593995636497695,0.029429578264171866,0.0007617446315348886,-0.054197044195312793,1.0,0.0
4.555063981527743,0.02949346157613228,0.0007618785548975104,-0.05419693288197336,1.0,0.0
4.552896190573199,0.029525381365391738,0.0007619447877028618,-0.054196970910633135,1.0,0.0
4.550728400191425,0.029557339256696118,0.0007620135425980834,-0.05419705329245006,1.0,0.0
4.546392817912961,0.029621355662230727,0.0007621486095533703,-0.05419698745483559,1.0,0.0
4.544225028588065,0.029653332627279233,0.0007622145323277207,-0.054196820049982275,1.0,0.0
4.5398894474193705,0.029717349848352816,0.0007623514007534249,-0.05419695563459159,1.0,0.0
4.537721657373956,0.029749378038710236,0.0007624180208862796,-0.0541968858908215,1.0,0.0
4.535553868465667,0.029781423103190437,0.0007624841504135782,-0.0541968388234213,1.0,0.0
4.5312182866169435,0.029845622065634656,0.0007626215618599108,-0.054196887955258344,1.0,0.0
4.529050495996653,0.029877713717844697,0.0007626887408506144,-0.05419698139606366,1.0,0.0
4.524714914283759,0.029941944640877637,0.0007628227214098171,-0.05419691737155241,1.0,0.0
4.522547124567286,0.029974102065943874,0.0007628918575574017,-0.05419681445012947,1.0,0.0
4.520379334598529,0.030006270117865438,0.0007629596347866752,-0.054197130891676215,1.0,0.0
4.516043753055616,0.03007056773384868,0.0007630929342909987,-0.05419709388510641,1.0,0.0
4.513875961343774,0.03010277224799142,0.0007631618524718276,-0.054197018568908684,1.0,0.0
4.511708170178117,0.030134968619757268,0.0007632300209483578,-0.0541969516882268,1.0,0.0
4.507372587252814,0.030199424321029053,0.0007633637959459927,-0.05419703537160392,1.0,0.0
4.505204796523212,0.0302316906928411,0.0007634327096811555,-0.054196897272798195,1.0,0.0
4.50086921644045,0.03029619427489194,0.0007635678092589027,-0.0541969169058909,1.0,0.0
4.498701426331399,0.030328462587968744,0.0007636344263742822,-0.05419675388919121,1.0,0.0
4.496533638143868,0.0303607395640414,0.0007637025704637646,-0.05419687709453469,1.0,0.0
4.492198064846821,0.03042532595856276,0.0007638382524653986,-0.05419686981745708,1.0,0.0
4.490030276889006,0.030457638487071403,0.0007639047676983868,-0.0541969115979275,1.0,0.0
4.485694700052965,0.030522293834854875,0.0007640411535028147,-0.054196793113954644,1.0,0.0
4.483526913574819,0.03055457894983217,0.0007641081187936827,-0.05419683485931248,1.0,0.0
4.481359127237118,0.03058690945663679,0.0007641745016003787,-0.054196827092980904,1.0,0.0
4.477023561255753,0.030651638864896243,0.0007643103644907612,-0.05419684021435711,1.0,0.0
4.474855775361141,0.030684012132876092,0.0007643781068691347,-0.05419692901176809,1.0,0.0
4.472687987960562,0.03071641815547282,0.0007644449411542409,-0.054196928678394096,1.0,0.0
4.468352411889997,0.030781230673311177,0.0007645800708544481,-0.054196799248119154,1.0,0.0
4.466184626065511,0.030813672534351518,0.0007646482516951991,-0.05419687151790953,1.0,0.0
4.46184904607332,0.030878581311474446,0.000764782186855606,-0.05419685716438294,1.0,0.0
4.459681255375885,0.03091105846980165,0.0007648501555238552,-0.054197042995183464,1.0,0.0
4.45751346520877,0.030943521147383735,0.0007649183352248512,-0.054197017831778105,1.0,0.0
4.45317788110297,0.031008543918676187,0.0007650526032935145,-0.05419695284032988,1.0,0.0
4.451010090867527,0.031041047687346873,0.0007651201491767345,-0.054197007700716116,1.0,0.0
4.446674509748747,0.031106099067135014,0.000765255889468075,-0.0541970819896509,1.0,0.0
4.444506718711507,0.031138664439241796,0.0007653228329921324,-0.05419683546928877,1.0,0.0
4.440171139817233,0.031203805385313498,0.0007654584934345676,-0.05419700668709648,1.0,0.0
4.438003350872182,0.031236381793447114,0.0007655262214399938,-0.05419704555510663,1.0,0.0
4.435835562078955,0.03126897105466147,0.0007655930128257493,-0.05419704669645298,1.0,0.0
4.431499986867775,0.03133420219493783,0.0007657279256880756,-0.05419698075658719,1.0,0.0
4.429332198296879,0.03136682165747978,0.0007657960544483755,-0.054196950918166564,1.0,0.0
4.424996619585808,0.0314321698456224,0.0007659304914514609,-0.05419698848789678,1.0,0.0
4.422828832092673,0.031464842664265635,0.0007659984066639147,-0.05419695966418536,1.0,0.0
4.420661044751818,0.03149753719137664,0.0007660667750468697,-0.05419692758109029,1.0,0.0
4.416325472946822,0.031562945550853004,0.000766200861457178,-0.05419691904122814,1.0,0.0
4.414157688898138,0.03159565844587175,0.0007662681780267189,-0.05419686085493658,1.0,0.0
4.409822120470799,0.031661146009091215,0.000766404598897652,-0.05419691268322624,1.0,0.0
4.407654336085067,0.03169391093577584,0.0007664713460332484,-0.05419695306825312,1.0,0.0
4.4054865513292905,0.031726680489428144,0.0007665384563839694,-0.05419696397057261,1.0,0.0
4.401150978581254,0.03179226924591475,0.0007666751994942489,-0.05419695886834752,1.0,0.0
4.3989831926568534,0.03182508106558975,0.0007667421079130543,-0.0541969434715035,1.0,0.0
4.394647624568306,0.03189071590752259,0.0007668768044086782,-0.05419692177540325,1.0,0.0
4.3924798390258095,0.03192354918514577,0.0007669452635862273,-0.05419696929237228,1.0,0.0
4.390312054159395,0.03195640528977424,0.0007670123774068394,-0.054196894039362675,1.0,0.0
4.3859764851380065,0.03202213374019426,0.0007671467406342725,-0.05419693776385559,1.0,0.0
4.383808702014279,0.03205503897060919,0.0007672154253096641,-0.0541969332921981,1.0,0.0
4.379473137233353,0.032120804061688886,0.0007673485089277898,-0.054196938550969964,1.0,0.0
4.377305354257791,0.03215371374977287,0.0007674158466303149,-0.05419692198017323,1.0,0.0
4.375137570790043,0.03218662543178511,0.000767484406503427,-0.05419695082981657,1.0,0.0
4.370801998551124,0.03225252353354671,0.000767618613813803,-0.054196969031410136,1.0,0.0
4.368634213352643,0.0322854583357113,0.0007676852403560863,-0.0541970359760815,1.0,0.0
4.364298644004805,0.03235143936386999,0.0007678222974335513,-0.05419696000692831,1.0,0.0
4.362130859257235,0.03238445049238579,0.0007678888168832776,-0.054196974196028425,1.0,0.0
4.359963076091913,0.03241745420959697,0.0007679552728501182,-0.054196945332628754,1.0,0.0
4.355627511554318,0.03248349822465929,0.0007680920751533815,-0.0541969917146532,1.0,0.0
4.353459728728636,0.032516524409064475,0.000768158529476648,-0.054197038127473895,1.0,0.0
4.349124159264974,0.032582627657112964,0.0007682925711286481,-0.05419700062257404,1.0,0.0
4.346956377368066,0.0326156926802228,0.0007683613139451984,-0.05419687561583242,1.0,0.0
4.344788596767769,0.03264878246230776,0.0007684283451570018,-0.05419690738692573,1.0,0.0
4.340453037899864,0.03271495155093512,0.0007685613409694758,-0.05419686521157585,1.0,0.0
4.338285262796956,0.03274805496508165,0.0007686300469913476,-0.054196834611248024,1.0,0.0
4.333949711823272,0.03281433066094922,0.0007687633472993616,-0.054196819698458576,1.0,0.0
4.3317819345819,0.03284745671297582,0.0007688302090488319,-0.05419688479202045,1.0,0.0
4.32961415557702,0.03288063205498462,0.0007688992732673983,-0.05419704955678517,1.0,0.0
4.325278595233459,0.03294704290607411,0.0007690334847910707,-0.05419687651650906,1.0,0.0
4.323110816340249,0.032980247992975664,0.0007691000810864379,-0.05419686641723076,1.0,0.0
4.320943039232958,0.03301344873554124,0.0007691686194281067,-0.05419690448126846,1.0,0.0
4.3166074826287195,0.03307990136519583,0.0007693030948690005,-0.054197020971029186,1.0,0.0
4.314439701077749,0.033113158301163785,0.000769369419455268,-0.05419695197506624,1.0,0.0
4.312271919085422,0.03314641556249501,0.000769437839728826,-0.0541968585064494,1.0,0.05
4.307945998431309,0.032661095272286715,0.0006569164184112575,-0.05378424952233951,1.0,0.05
4.305840655292739,0.024540084722088924,-0.0011420390961536242,-0.0539103725177017,1.0,0.05
4.301597944391465,0.00048618685829137796,-0.0064275080710877175,-0.05387287757227921,1.0,0.05
4.29942428517028,-0.012905319112144605,-0.009329648948972813,-0.053873479138948355,1.0,0.05
4.297208340322015,-0.026681706384314156,-0.012281107672728275,-0.053876881827751966,1.0,0.05
4.292642432174027,-0.05497937535147741,-0.01823340477875668,-0.05388489119249851,1.0,0.05
4.290290074781469,-0.06943104772571754,-0.021217340476177626,-0.053888621532933945,1.0,0.0
4.285460229814237,-0.09814025030964112,-0.027027244609031165,-0.05378163467205055,1.0,0.0
4.28317177982448,-0.10468372331228683,-0.028130352538561887,-0.053815739723506395,1.0,0.0
4.280946616449743,-0.10834126017371942,-0.028565594666336902,-0.05384020401440126,1.0,0.0
4.2765603256438895,-0.11291676990727033,-0.02878843041686685,-0.05388592397214076,1.0,0.0
4.2743753348412765,-0.11483909866996707,-0.02881170923316001,-0.0539057870215538,1.0,0.0
4.272191137310333,-0.11670433739856272,-0.028820878967195207,-0.05392421824223548,1.0,0.0
4.267822147765285,-0.12038178069298128,-0.02882592726049027,-0.05395727126291683,1.0,0.0
4.265636921496609,-0.12221260455725569,-0.028826456733565653,-0.05397203608733725,1.0,0.0
4.263451151427714,-0.12404197757748345,-0.02882662526288826,-0.05398607329039096,1.0,0.0
4.259078034417733,-0.12769936661716727,-0.028826612408849206,-0.05401171490039447,1.0,0.0
4.256890738328325,-0.12952780139667802,-0.028826549577286698,-0.054023174600832835,1.0,0.0
4.254702986271728,-0.1313562069776394,-0.028826476567231918,-0.05403432128574037,1.0,0.0
4.25032622603979,-0.13501293153765456,-0.02882632559557441,-0.054054105615002124,1.0,0.0
4.2481372701864135,-0.13684127808106422,-0.028826248468519666,-0.054063107519116915,1.0,0.0
4.24594796242736,-0.13866960954621868,-0.028826170728658895,-0.05407135916826378,1.0,0.0
4.2415683731283975,-0.1423262429348932,-0.028826019965189964,-0.05408663828981197,1.0,0.0
4.239378131037799,-0.14415455755717715,-0.028825945095205308,-0.05409356693557843,1.0,0.0
4.237187615886958,-0.14598286170508695,-0.028825869294896833,-0.05409999434735813,1.0,0.0
4.232805830620166,-0.14963940891352837,-0.028825721667793847,-0.05411169537524407,1.0,0.0
4.230614588817288,-0.15146767513460258,-0.028825648798622594,-0.05411722455975809,1.0,0.0
4.226231475733496,-0.15512420157405232,-0.028825501681037924,-0.05412689234160606,1.0,0.0
4.2240396300077645,-0.15695243835123956,-0.02882542991387027,-0.0541312430775569,1.0,0.0
4.221847607941906,-0.15878068675210047,-0.028825358678250868,-0.05413538591675082,1.0,0.0
4.21746307285393,-0.16243713216806988,-0.028825214170467572,-0.05414282840398599,1.0,-0.05
4.215270583174432,-0.16426532757159384,-0.028825143094527994,-0.05414633320560869,1.0,-0.05
4.211436671357151,-0.15336767546116337,-0.02554920523459414,-0.05378442764603486,1.0,-0.05
4.209666700172658,-0.1431831707868103,-0.02286116985195119,-0.05376313790740039,1.0,0.0
4.206107255836791,-0.12053948100873628,-0.01706505401761582,-0.05374801374962179,1.0,0.0
4.204198909841927,-0.11259841412448261,-0.014978344330763504,-0.05368329492311408,1.0,0.0
4.20212694531874,-0.110398941984327,-0.01423566517008723,-0.053707133835137144,1.0,0.0
4.197858538263811,-0.11054764820778991,-0.01383876556718755,-0.053768562320803515,1.0,0.0
4.1957053034960605,-0.11126847434756962,-0.013798203726893665,-0.053797061642202326,1.0,0.0
4.191389174176975,-0.11294346433179142,-0.01377568874288504,-0.05384844994942384,1.0,0.0
4.189228686633643,-0.11381456208745881,-0.013773018218846689,-0.05387168971963585,1.0,0.0
4.187067133918305,-0.11469153714697135,-0.013771876069375466,-0.05389318191631465,1.0,0.0
4.182741405516821,-0.1164512268299394,-0.013771086551702338,-0.053932164117565184,1.0,0.0
4.180577393637926,-0.11733194596233716,-0.013770925541523038,-0.053949664547941145,1.0,0.0
4.176247355258518,-0.11909371572278454,-0.013770711817760461,-0.05398146971815132,1.0,0.0
4.1740814171473,-0.11997467186807474,-0.01377062221620573,-0.05399574886877079,1.0,0.0
4.171914921378076,-0.12085562639802117,-0.013770537397950977,-0.054009323612286275,1.0,0.0
4.167580399440068,-0.12261751460536957,-0.013770375229498755,-0.054033496531070035,1.0,0.0
4.165412437807714,-0.12349849816881622,-0.013770295113947117,-0.05404455401992214,1.0,0.0
4.161075258392499,-0.1252604143348119,-0.013770138491654649,-0.054064499612017425,1.0,0.0
4.158906096323723,-0.12614132357052338,-0.013770061721875004,-0.05407327319030686,1.0,0.0
4.156736586483306,-0.12702225635013242,-0.01376998456677192,-0.05408171232677228,1.0,0.0
4.152396606548512,-0.12878405952491206,-0.013769832240866364,-0.0540967761376403,1.0,0.0
4.150226178240962,-0.12966494785218802,-0.01376975811021075,-0.05410366967385127,1.0,0.0
4.145884543177646,-0.13142668448713415,-0.013769608261041677,-0.05411591509318692,1.0,0.0
4.143713366911159,-0.13230754318308002,-0.013769534508740633,-0.0541216091086818,1.0,0.0
4.141541969841787,-0.13318839053590384,-0.013769462185726833,-0.05412681713610379,1.0,0.0
4.137198578283156,-0.13495005085547526,-0.013769315943187643,-0.054136112832222416,1.0,0.0
4.135026611296682,-0.13583087167946617,-0.013769243295102096,-0.0541403741124058,1.0,0.0
4.130682184494191,-0.13759251811112713,-0.013769101996608746,-0.054148058413294065,1.0,0.0
4.128509749351073,-0.13847330029281735,-0.013769029757071727,-0.05415142789349736,1.0,0.0
4.12633717863178,-0.13935406542012865,-0.013768957646539515,-0.054154654200951224,1.0,0.0
4.12199166272464,-0.1411155965708138,-0.01376881806585939,-0.05416043428715689,1.0,0.0
4.119818734632488,-0.14199633254661964,-0.013768746947791732,-0.054163084876791334,1.0,0.0
4.1154725709086915,-0.1437578104049641,-0.013768606272747008,-0.05416780872371452,1.0,0.0
4.113299351702961,-0.1446385058811156,-0.013768537462768404,-0.05416979731455096,1.0,0.0
4.1089526667683325,-0.14639990051115598,-0.013768396493901491,-0.05417366239492161,1.0,0.0
4.106779209596856,-0.14728057677869977,-0.013768327269716885,-0.05417536396082512,1.0,0.0
4.1046056855936595,-0.14816123409498747,-0.013768259283592932,-0.054176942172938336,1.0,0.0
4.100258441108685,-0.14992257264416092,-0.013768119962404901,-0.05417988985601019,1.0,0.0
4.09808473308638,-0.15080320459457613,-0.013768050752734795,-0.054181145409525566,1.0,0.0
4.093737170481295,-0.15256447366894918,-0.013767915457371105,-0.05418331573752044,1.0,0.0
4.091563319510529,-0.1534450901930552,-0.013767845552787872,-0.05418442429332404,1.0,0.0
4.087215489430934,-0.15520625200747318,-0.01376770890946144,-0.05418634495206165,1.0,0.0
4.085041517165588,-0.15608682922913736,-0.013767641582810297,-0.05418700053438985,1.0,0.0
4.080693473770696,-0.15784793135681535,-0.013767502561755518,-0.05418849923099489,1.0,0.0
4.078519404917427,-0.15872844259440475,-0.013767434960939129,-0.054189349342903315,1.0,0.0
4.074171177937166,-0.16048947274374706,-0.013767299070875372,-0.05419051202395675,1.0,0.0
4.071997022867644,-0.161369965232124,-0.01376722946302067,-0.054191091988954554,1.0,0.0
4.069822844171254,-0.16225043728640315,-0.01376716187562621,-0.05419163890016221,1.0,0.0
4.065474421889058,-0.16401140434847197,-0.013767027411862198,-0.05419240432680006,1.0,0.0
4.063300183278491,-0.16489186267800227,-0.013766957928121326,-0.054192747300263244,1.0,0.0
4.058951652722453,-0.1666527138360686,-0.013766823455168997,-0.0541934784050071,1.0,0.0
4.056777362282082,-0.16753311076458371,-0.013766755516082085,-0.0541939626761907,1.0,0.0
4.052428738496569,-0.16929390359173568,-0.013766617864888087,-0.05419438370294527,1.0,0.0
4.050254405230719,-0.17017427160048554,-0.0137665514233688,-0.05419468135616867,1.0,0.0
4.048080057294373,-0.17105464404455015,-0.01376648428520777,-0.05419488394226413,1.0,0.0
4.043731329717638,-0.17281534761230963,-0.013766346480095892,-0.05419515456610502,1.0,0.0
4.0415569510397304,-0.17369564145234592,-0.013766279558719341,-0.054195369855971176,1.0,0.0
4.037208161942349,-0.17545626448664445,-0.013766143956455257,-0.05419585928592108,1.0,0.0
4.035033754525585,-0.17633653887179848,-0.013766074905192327,-0.05419590149647746,1.0,0.0
4.030684912946498,-0.17809705623088812,-0.01376594146079324,-0.05419612460606915,1.0,0.0
4.028510481375258,-0.17897732414110987,-0.013765873197715717,-0.054196129196900644,1.0,0.0
4.024161599248479,-0.18073779663662892,-0.013765736965600794,-0.05419644368270449,1.0,0.0
4.021987151276079,-0.18161800328910122,-0.01376567060012468,-0.054196390772452085,1.0,0.0
4.019812692868852,-0.1824982095865987,-0.01376560254546999,-0.05419631569774963,1.0,0.0
4.015463759326073,-0.18425860611050388,-0.013765466005173588,-0.05419658719894582,1.0,0.0
4.013289284283478,-0.18513877456107783,-0.013765399787653121,-0.05419677214524565,1.0,0.0
4.008940317005756,-0.18689910748782798,-0.013765263479357248,-0.05419693918844515,1.0,0.0
4.006765826997171,-0.18777926132695588,-0.013765195620963122,-0.05419676952711483,1.0,0.0
4.002416831181302,-0.1895395005019289,-0.013765062131043115,-0.05419714343695503,1.0,0.0
4.000242325385395,-0.19041959587540225,-0.01376499325815661,-0.05419706582048733,1.0,0.0
3.998067814476507,-0.19129967884584156,-0.013764924813335355,-0.05419721382122766,1.0,0.0
3.9937187773676155,-0.19305980601555064,-0.013764791172672819,-0.05419719309330473,1.0,0.0
3.99154425383749,-0.19393985219798435,-0.013764722453871725,-0.05419720713021481,1.0,0.0
3.987195195122182,-0.19569991838670264,-0.013764587080550839,-0.05419706914377653,1.0,0.0
3.9850206600686042,-0.19657993646877422,-0.01376452043906673,-0.05419735536650272,1.0,0.0
3.982846124098609,-0.19745991425266507,-0.013764451860687754,-0.054197295037750504,1.0,0.0
3.9784970408510305,-0.19921986442405828,-0.013764315551977324,-0.05419742324477861,1.0,0.0
3.9763224948708453,-0.20009980830744586,-0.01376424874221649,-0.05419730124790334,1.0,0.0
3.9741479453131254,-0.20097975560504328,-0.013764180712496632,-0.05419735742197784,1.0,0.0
3.9697988369557233,-0.20273959408852513,-0.01376404396153097,-0.05419744050656461,1.0,0.0
3.9676242769626464,-0.20361950680182742,-0.013763977277984507,-0.05419724997286002,1.0,0.0
3.9632751508494537,-0.20537926398381381,-0.013763840554148254,-0.05419731387490545,1.0,0.0
3.9611005806569546,-0.2062591512774403,-0.013763772614745928,-0.054197392343777295,1.0,0.0
3.9589260062238325,-0.20713903122379415,-0.013763705928697911,-0.054197326796229905,1.0,0.0
3.9545768420194114,-0.20889875863823532,-0.01376357057067823,-0.054197515234718496,1.0,0.0
3.952402254382285,-0.20977861246962218,-0.013763502572762376,-0.05419723372708751,1.0,0.0
3.9480530782521726,-0.21153826134717765,-0.013763368774095341,-0.05419725519050056,1.0,0.0
3.9458784891080425,-0.21241809558963187,-0.013763300942640111,-0.05419720551060103,1.0,0.0
3.9415293000374922,-0.21417769907036108,-0.013763165556252344,-0.054197272547164,1.0,0.0
3.9393547022995565,-0.21505748359659024,-0.013763098950056118,-0.054197342013129646,1.0,0.0
3.9371801046754364,-0.2159372316179038,-0.013763031134586101,-0.05419705687284648,1.0,0.0
3.932830903238827,-0.21769669572664035,-0.013762894874250864,-0.054197118265739475,1.0,0.0
3.930656299005502,-0.21857640104163215,-0.013762827913484488,-0.054197176554929616,1.0,0.0
3.9284816933907254,-0.2194560835986979,-0.013762760204350521,-0.054196984223388034,1.0,0.0
3.9241324705639755,-0.22121545985512753,-0.013762623810698704,-0.05419709901135894,1.0,0.0
3.921957853979717,-0.22209513065772885,-0.013762556747866639,-0.054197178536614876,1.0,0.0
3.9176086160164196,-0.22385441161326275,-0.013762421079715925,-0.05419697206860241,1.0,0.0
3.915433991778102,-0.22473406060473602,-0.013762352892439211,-0.05419705651296747,1.0,0.0
3.9132593629797032,-0.22561371467034216,-0.013762285971179566,-0.05419706325529283,1.0,0.0
3.9089101007238995,-0.227372900744688,-0.013762150600552414,-0.05419707087956205,1.0,0.0
3.906735463090804,-0.2282525118675229,-0.013762082455713087,-0.054197068765801326,1.0,0.0
3.9045608226486217,-0.22913209617809513,-0.013762014868247907,-0.0541971108776369,1.0,0.0
3.9002115305539484,-0.23089123147500057,-0.013761880434388418,-0.05419712162741064,1.0,0.0
3.8980368815013526,-0.2317707772570733,-0.013761812115663519,-0.05419703028539824,1.0,0.0
3.8936875719914488,-0.23352984192623735,-0.013761677289174323,-0.05419707638849114,1.0,0.0
3.891512915289628,-0.2344093519665711,-0.013761610226783905,-0.054197066274193295,1.0,0.0
3.8871635932009543,-0.23616836814151304,-0.013761474018763709,-0.05419709605449263,1.0,0.0
3.8849889277064045,-0.23704784791705016,-0.013761407019616478,-0.054197003525872534,1.0,0.0
3.8828142596522714,-0.23792730438168475,-0.013761340118214949,-0.05419698974504783,1.0,0.0
3.8784649137915004,-0.23968622843023465,-0.013761203919066434,-0.05419697895546305,1.0,0.0
3.8762902401545207,-0.24056564646936207,-0.013761136413770303,-0.054196926331518736,1.0,0.0
3.8719408831222912,-0.24232447099970014,-0.013761002067736006,-0.054196975178563145,1.0,0.0
3.8697661986170013,-0.2432038631022417,-0.01376093344107543,-0.05419702378917046,1.0,0.0
3.8654168162339686,-0.24496261899689767,-0.013760799416483227,-0.05419704886751098,1.0,0.0
3.8632421223874163,-0.2458419838414211,-0.013760732204072368,-0.05419697360844267,1.0,0.0
3.8610674249151344,-0.24672134413661367,-0.013760663720300048,-0.054196984339326626,1.0,0.0
3.85671802332838,-0.24847999226226228,-0.013760529011696776,-0.05419694776870765,1.0,0.0
3.854543312238351,-0.24935933014241038,-0.013760462253832761,-0.05419706740215191,1.0,0.0
3.8501938835332834,-0.25111792710757763,-0.013760325426432019,-0.054197100702093826,1.0,0.0
3.8480191650884463,-0.25199720277814575,-0.013760258595574504,-0.054197207194165875,1.0,0.0
3.8436697284941843,-0.25375568034020307,-0.013760123211306041,-0.054197059903320355,1.0,0.0
3.8414950046826664,-0.25463490211391965,-0.013760054331215743,-0.05419704717979945,1.0,0.0
3.839320279303858,-0.2555141101444611,-0.013759987162306864,-0.05419698206411305,1.0,0.0
3.8349708197727694,-0.25727251129537304,-0.013759852772833092,-0.054196977842208005,1.0,0.0
3.8327960836160337,-0.258151699925882,-0.013759783873730447,-0.05419706709673666,1.0,0.0
3.8284466007962945,-0.2599100577272408,-0.013759650431883208,-0.054196940205305744,1.0,0.0
3.826271853221879,-0.26078924444842594,-0.013759583249442153,-0.054197030500853005,1.0,0.0
3.821922355677973,-0.2625475133355476,-0.013759446217806559,-0.054196933236996925,1.0,0.0
3.8197476060104667,-0.26342661084963936,-0.013759379797691262,-0.0541970224151882,1.0,0.0
3.8175728500506154,-0.2643057518232172,-0.013759313106848081,-0.0541969354597025,1.0,0.0
3.813223331599473,-0.266063956116229,-0.013759176116624805,-0.05419695551472348,1.0,0.0
3.811048568162278,-0.2669430221938286,-0.013759109630802624,-0.05419696984588751,1.0,0.0
3.806699028965228,-0.26870114476051116,-0.013758974438079608,-0.05419689948591677,1.0,0.0
3.8045242552467684,-0.26958018504669934,-0.013758905785580144,-0.05419701381317932,1.0,0.0
3.8001746981895734,-0.27133825678039064,-0.013758773470353036,-0.05419692921400321,1.0,0.0
3.7979999161640543,-0.27221727684577196,-0.013758705263025361,-0.05419693907226142,1.0,0.0
3.7958251303865254,-0.27309629034314153,-0.013758636427026683,-0.054196922314333706,1.0,-0.05
3.7917574653096353,-0.2708432176676061,-0.012762674420454756,-0.05389664123111637,1.0,-0.05
3.790207056872192,-0.2625622787106371,-0.010482335809318233,-0.053840747323639304,1.0,-0.05
3.78729896742465,-0.24171891795360698,-0.0049290712515490664,-0.05380199645473205,1.0,-0.05
3.7858399387393304,-0.2304405793119532,-0.0019942355665060196,-0.05379311497639927,1.0,-0.05
3.7828378244329057,-0.20707343208359003,0.0039478784597224426,-0.053780339275745215,1.0,-0.05
3.7812859679937296,-0.1950743345090701,0.006930357523553976,-0.053774641885550256,1.0,-0.05
3.779697393969316,-0.18288443795970466,0.009915002032929165,-0.0537699335306101,1.0,0.0
3.776266998061785,-0.16156843125218293,0.014990464394903369,-0.053715565709897994,1.0,0.0
3.774222749890406,-0.15795757928623524,0.015693566576495344,-0.05372858924194479,1.0,0.0
3.7699634794365684,-0.1546015285846065,0.01606624760711195,-0.053784338974257384,1.0,0.0
3.767808751655434,-0.1534654751055797,0.016104447428413993,-0.05381066267280077,1.0,0.0
3.763487720667618,-0.15138896841307184,0.016125688676717487,-0.053858441036614524,1.0,0.0
3.7613245963818422,-0.15037891152929833,0.016128212518683793,-0.053879893919477784,1.0,0.0
3.759160422270968,-0.14937384395467912,0.016129295497396834,-0.0539000142332291,1.0,0.0
3.7548295943049967,-0.1473684113097051,0.016130048032794275,-0.05393649340997131,1.0,0.0
3.7526631103524886,-0.1463664209795528,0.016130202074590705,-0.053952746653431305,1.0,0.0
3.7483282639014788,-0.1443627755632747,0.01613041247819258,-0.0539826983516698,1.0,0.0
3.746159986802493,-0.1433609685661052,0.016130500038753715,-0.05399625905422889,1.0,0.0
3.741821898498553,-0.14135736385425637,0.016130663144070967,-0.05402085976864468,1.0,0.0
3.7396521551743644,-0.14035554482099022,0.016130744603713998,-0.05403193601007161,1.0,0.0
3.737481985313568,-0.13935370952512108,0.016130824130801913,-0.05404226301397208,1.0,0.0
3.7331404667314407,-0.13735002512993644,0.01613097789604745,-0.054061607196967065,1.0,0.0
3.7309691690712654,-0.1363481610671418,0.016131056043259817,-0.05406987336206215,1.0,0.0
3.726625608098798,-0.1343444475410354,0.01613120740148466,-0.05408552452431814,1.0,0.0
3.7244533865416147,-0.13334254768815487,0.016131281732257308,-0.05409258329288935,1.0,0.0
3.720108151284335,-0.1313387319635966,0.016131433037614773,-0.05410527626242145,1.0,0.0
3.7179351708390396,-0.13033680846458734,0.016131506125557138,-0.054110998393645415,1.0,0.0
3.7157619690977945,-0.12933488898339252,0.01613157828774181,-0.05411646173523055,1.0,0.0
3.711414959686702,-0.1273309891986823,0.01613172591861245,-0.05412632510083726,1.0,0.0
3.709241176611089,-0.12632904541297602,0.016131797645587254,-0.054130876080806134,1.0,0.0
3.7048931168379475,-0.12432509883956049,0.016131940286496782,-0.05413873291952731,1.0,0.0
3.7027188604759744,-0.12332311159397819,0.016132012933329443,-0.05414256292517017,1.0,0.0
3.698369940878383,-0.12131910443239148,0.01613215403534174,-0.054149228916804404,1.0,0.0
3.6961952975752252,-0.12031708214705493,0.016132224380255855,-0.0541523156090844,1.0,0.0
3.6940205414869154,-0.11931503721817249,0.016132296115087597,-0.0541550410823568,1.0,0.0
3.6896707165331577,-0.11731093144971119,0.016132436251571902,-0.054160187048411634,1.0,0.0
3.6874956615669685,-0.11630886642389623,0.01613250551060974,-0.05416260430362185,1.0,0.0
3.6831453024102414,-0.11430472082718098,0.01613264628696054,-0.054166707674982995,1.0,0.0
3.6809700078808127,-0.11330263644421314,0.0161327149574525,-0.054168495091798,1.0,0.0
3.6766192065783807,-0.11129839537913491,0.01613285345406934,-0.054172016204834916,1.0,0.0
3.6744437107931147,-0.11029627461066634,0.016132923319931103,-0.054173637098090754,1.0,0.0
3.67226815703465,-0.10929415345130075,0.016132991724016832,-0.05417519809262572,1.0,0.0
3.6679168957453703,-0.10728978540242817,0.016133129520614076,-0.054177849474228656,1.0,0.0
3.6657411936719795,-0.1062876031133593,0.016133199220575656,-0.05417902183494294,1.0,0.0
3.6613896573033915,-0.10428320279625578,0.016133335811716276,-0.054181386156227695,1.0,0.0
3.6592138309383446,-0.10328095200644255,0.01613340464771995,-0.05418227086788918,1.0,0.0
3.654862072028525,-0.10127650289082926,0.016133542394907052,-0.0541840813593073,1.0,0.0
3.6526861453483415,-0.1002742468501454,0.016133610022611045,-0.05418497228096264,1.0,0.05
3.6505101907324566,-0.09927197976488604,0.016133677895172283,-0.05418568105367805,1.0,0.05
3.6460902830953152,-0.10053038444539558,0.015303621222659824,-0.053859478588558884,1.0,0.05
3.643698446467127,-0.10817821959145622,0.013072106347409629,-0.053821156324535435,1.0,0.05
3.6387357997936194,-0.12785061599339026,0.007541911782973698,-0.05381418196033816,1.0,0.05
3.6361921149005276,-0.13854512304542516,0.004609496128760937,-0.05382050534180216,1.0,0.05
3.6336125936335724,-0.14952877860695776,0.0016454045119549399,-0.053828010093355694,1.0,0.05
3.6283484456521644,-0.17214372550598483,-0.004314387177569823,-0.05384287717239067,1.0,0.05
3.6256629589503264,-0.18373770982217547,-0.00729922212239098,-0.05384973547576721,1.0,0.05
3.62018080434119,-0.20747212997189582,-0.013271044484332584,-0.05386209511825224,1.0,0.05
3.617382081677938,-0.21960996804511257,-0.016257325969493697,-0.05386760346662878,1.0,0.05
3.611664036667105,-0.24442433437558117,-0.02223003465000506,-0.053877746297978035,1.0,0.05
3.60874255378509,-0.25710043940185356,-0.02521641450388279,-0.053882228088526496,1.0,0.05
3.6027692419821693,-0.28298973751846307,-0.031189206482330034,-0.05389057745454395,1.0,0.05
3.5997152437632356,-0.296202618208222,-0.03417561418764303,-0.0538943864696142,1.0,0.05
3.596614911142547,-0.3095940408682439,-0.03716200632238098,-0.053898066630783115,1.0,0.0
3.590612471366799,-0.33310343822993776,-0.04213637271729387,-0.05377516620068379,1.0,0.0
3.588172442229707,-0.3382770247312872,-0.04282481618891276,-0.053787787615362515,1.0,0.0
3.5836233118003546,-0.3450107814285895,-0.04319095446150756,-0.05384258269970088,1.0,0.0
3.581396270982942,-0.34786867764797474,-0.043228150062155746,-0.053866640071496,1.0,0.0
3.5769579526352056,-0.3534020690320663,-0.04324846230779711,-0.05390931954929368,1.0,0.0
3.574740280469344,-0.356142683346862,-0.04325073201224461,-0.05392854347297771,1.0,0.0
3.572522343086664,-0.3588787401942315,-0.04325160456469934,-0.05394660501807902,1.0,0.0
3.5680848864910812,-0.3643464361165613,-0.04325198722110857,-0.053979095692348045,1.0,0.0
3.5658652835858584,-0.36707960565426395,-0.04325197209944942,-0.053993795635117525,1.0,0.0
3.561424421666568,-0.3725456037570883,-0.04325184779578006,-0.05402027222275141,1.0,0.0
3.5592032225180614,-0.37527855387069536,-0.0432517707171709,-0.05403220972413547,1.0,0.0
3.5547594397355597,-0.3807444098466838,-0.04325161695660795,-0.05405384112716849,1.0,0.0
3.5525369158721403,-0.3834773165562968,-0.04325153823978878,-0.05406370656583981,1.0,0.0
3.550314004148607,-0.3862102096338447,-0.043251459017360605,-0.054072782875844716,1.0,0.0
3.5458671258556573,-0.3916759574569245,-0.0432513074512173,-0.054089113908322384,1.0,0.0
3.543643202049325,-0.39440883423866424,-0.04325123165887601,-0.05409650682816736,1.0,0.0
3.539194486531762,-0.3998745621119647,-0.04325107982354126,-0.05410993475487991,1.0,0.0
3.536969730109853,-0.40260741706041825,-0.043251007188553015,-0.054116004343605084,1.0,0.0
3.532519506979384,-0.4080730674274121,-0.04325085818550822,-0.05412687831727059,1.0,0.0
3.5302940683443658,-0.41080586199789093,-0.043250784261898545,-0.05413187306989253,1.0,0.0
3.5280684290603403,-0.4135386617549635,-0.04325071288978455,-0.05413636343593131,1.0,0.0
3.523616602025519,-0.41900422935693427,-0.04325056747527678,-0.054144757603517446,1.0,0.0
3.5213904349525933,-0.42173700749652987,-0.04325049466112396,-0.054148465399219026,1.0,-0.05
3.5169376528107805,-0.4272025256945896,-0.04325035422888712,-0.054155150155195564,1.0,-0.05
3.514711054600986,-0.42993526886694705,-0.043250282138000196,-0.054158169283407664,1.0,-0.05
3.511691376811271,-0.423127736866023,-0.03997044063751498,-0.053792889970797786,1.0,-0.05
3.510620465113947,-0.4157279853599219,-0.03728247179961186,-0.053770881449757724,1.0,-0.05
3.5096071645793767,-0.40754950199912043,-0.03442087813301009,-0.053760911039704595,1.0,-0.05
3.5075967038555795,-0.39004720651947766,-0.028521715371416123,-0.05375178311207596,1.0,-0.05
3.506571257780281,-0.3809273338114692,-0.025544412576475106,-0.053748547801975466,1.0,-0.05
3.5044562793315,-0.3620930061835645,-0.019577308231457313,-0.053743423166210835,1.0,-0.05
3.503362792294075,-0.35239235824830556,-0.01659173939623615,-0.05374111668064052,1.0,-0.05
3.50224343778057,-0.3425058793855526,-0.013605777216649573,-0.05373938317251259,1.0,-0.05
3.4999223325002937,-0.3221786435291934,-0.007633545082781801,-0.053735497125972254,1.0,-0.05
3.498718330523184,-0.3117381505427553,-0.004647334754791843,-0.053733521530169526,1.0,-0.05
3.4962177671721517,-0.29030471370653615,0.0013250447079754535,-0.0537306007356535,1.0,-0.05
3.494918987706002,-0.2793118681427247,0.004311233782346324,-0.05372925488659197,1.0,-0.05
3.4922188730845716,-0.2567743028306853,0.010283634217961524,-0.05372631620179469,1.0,-0.05
3.4908153115405596,-0.2452298269822132,0.013269837957035735,-0.053725168748135044,1.0,-0.05
3.4893745904860314,-0.23350187154977128,0.01625600890242751,-0.05372382854736957,1.0,-0.05
3.4863772542010225,-0.20949551475964814,0.022228358457336173,-0.053722056286563014,1.0,-0.05
3.484818437392614,-0.19721707090753843,0.025214606202847656,-0.053720817552822764,1.0,-0.05
3.481574882938646,-0.17211151417698808,0.031186981733257402,-0.05371880797937556,1.0,-0.05
3.479887958837475,-0.15928414135951754,0.034173230499086604,-0.05371841547902956,1.0,-0.05
3.4763782348442662,-0.13308193623148573,0.04014562893965079,-0.0537163970744603,1.0,-0.05
3.474553230793571,-0.11970719988100424,0.043131831554500066,-0.05371553407202412,1.0,-0.05
3.470757413246,-0.09241120746991784,0.049104253163228306,-0.053714081115670664,1.0,-0.05
3.4687843870008384,-0.07849028378800454,0.05209047770191033,-0.05371364672641499,1.0,-0.05
3.4667598123747503,-0.06438761788889015,0.05507671997521335,-0.05371280207187601,1.0,-0.05
3.4625515943454817,-0.03563820175568496,0.061049156439969665,-0.05371169310168211,1.0,-0.05
3.4603657508729,-0.02099157230424708,0.06403541306052585,-0.0537112109397484,1.0,-0.05
3.4558250837118805,0.008843817861502018,0.07000784374656033,-0.05371013731789587,1.0,-0.05
3.453468064381718,0.024032314711254263,0.07299404912231544,-0.05370989911125257,1.0,-0.05
3.4485751574643357,0.05494986228045613,0.07896645148295556,-0.053708783618269695,1.0,-0.05
3.4460370759805983,0.07067857030826839,0.08195267281324359,-0.05370834297663052,1.0,-0.05
3.440772178561948,0.10267444542728581,0.08792508959880241,-0.05370784721318156,1.0,0.0
3.4380431665428532,0.11894136625582878,0.09091134061613204,-0.05370775670124006,1.0,0.0
3.4352483269139324,0.1353869875824139,0.09389755232049701,-0.05370708300250748,1.0,0.0
3.4297812294573364,0.1617174939873314,0.09793683072078929,-0.053678171754885096,1.0,0.0
3.427254285017363,0.16945308250433994,0.09840090000041024,-0.05370832174025675,1.0,0.0
3.4223041420519014,0.18260278125032817,0.09863933522539503,-0.05376963671369639,1.0,0.0
3.419842831764621,0.18886882837636298,0.09866450552324113,-0.05379732610557775,1.0,0.0
3.41492346238397,0.2012860890685561,0.09867867773250305,-0.05384765766543942,1.0,0.0
3.4124633535801445,0.20747799360015143,0.09868040044526116,-0.05387025073732232,1.0,0.0
3.410002576982323,0.21366693688461524,0.09868115673588007,-0.05389143443635125,1.0,0.0
3.4050788744397673,0.22604201983906652,0.09868172196395664,-0.05392965639416247,1.0,0.0
3.402615989608342,0.2322291158597828,0.09868185614285507,-0.05394707952525302,1.0,0.05
3.3976883270142717,0.2446031853265956,0.09868205057378387,-0.053978312642346316,1.0,0.05
3.3952556885189495,0.25035179108579303,0.09857201653611436,-0.053623639869468276,1.0,0.05
3.3914411093237025,0.24718979147131057,0.09428837383737998,-0.05371830775059694,1.0,0.05
3.3897048340890437,0.24318263501399145,0.09150825964807341,-0.05372132885598968,1.0,0.05
3.38800163021306,0.23859955610855427,0.08860758711394034,-0.053731991185681505,1.0,0.05
3.384628217020842,0.22849737118479635,0.08268487311135286,-0.05375729929930917,1.0,0.05
3.3829453597546926,0.22311265452250398,0.07970442611507289,-0.05376976395079369,1.0,0.05
3.3795747228686577,0.2117697695590806,0.0737349697255173,-0.05379228029388705,1.0,0.05
3.3778840864977897,0.2058208910544109,0.07074896674669429,-0.05380260687315852,1.0,0.05
3.3744863354840504,0.1933740343937328,0.06477630547055468,-0.053821283447939905,1.0,0.05
3.3727770076707175,0.18687676014654758,0.061789896548183565,-0.053829826971157235,1.0,0.05
3.3710592622239792,0.1801970016622452,0.058803466120639025,-0.05383758276890194,1.0,0.05
3.3675941716877804,0.16629009743837544,0.05283056768802352,-0.0538519966219031,1.0,0.05
3.3658446457362907,0.15906306983967547,0.049844143311756794,-0.053858195437659795,1.0,0.05
3.362306204222513,0.14406163696992633,0.04387124603066417,-0.053870004852368814,1.0,0.05
3.3605150994363626,0.13628738742151758,0.04088481840122038,-0.05387559812134035,1.0,0.05
3.3568836729534053,0.1201918150798912,0.03491196326018153,-0.05388491279632679,1.0,0.05
3.3550411631370887,0.11187066230645881,0.03192557455804235,-0.05388925950356205,1.0,0.05
3.3512970849407244,0.09468151212580118,0.025952762777898375,-0.05389716723553217,1.0,0.05
3.349393323527613,0.08581368235817691,0.02296637302539717,-0.05390070218943932,1.0,0.05
3.3474669551891245,0.07676369444664617,0.019979970456154295,-0.05390404407815841,1.0,0.05
3.3435420015088018,0.05811763802627313,0.014007186492704937,-0.05391012743013435,1.0,0.05
3.341541221996061,0.0485216752321512,0.011020798395890874,-0.053912978831401226,1.0,0.0
3.337457564819286,0.028784357771841084,0.005048071002921928,-0.05391794537494876,1.0,0.0
3.3353573556750575,0.022316265051555515,0.0030933652442817205,-0.053816937895818207,1.0,0.0
3.33107013367068,0.01955231688376226,0.0021760887936512763,-0.053850540068706154,1.0,0.0
3.3289173632060796,0.019374044206362122,0.002082866162536501,-0.05387390204035114,1.0,0.0
3.3267625877978095,0.019379709116652613,0.002047353576801525,-0.05389515372649978,1.0,0.0
3.3224496808726247,0.01955175863450291,0.0020279412706167843,-0.05393254096454636,1.0,0.0
3.320292012970888,0.01966081233926552,0.0020257749045211604,-0.05394934607579871,1.0,0.0
3.3159747035590805,0.019888553914856083,0.0020246483410985006,-0.05397995209802864,1.0,0.0
3.313815162060403,0.020003873707291266,0.002024576163240699,-0.05399379279188765,1.0,0.0
3.3116550818104318,0.02011947206682526,0.002024594442333383,-0.05400680008217784,1.0,0.0
3.3073334451314262,0.02035099418980435,0.0020247151840201427,-0.05403033847682437,1.0,0.0
3.3051719506269297,0.02046680771518694,0.0020247898846698087,-0.05404108969574284,1.0,0.0
3.3008477455924448,0.020698479438467036,0.0020249444265505456,-0.05406046116750951,1.0,0.0
3.2986850871883986,0.02081434101590562,0.0020250197648459256,-0.05406935455237649,1.0,0.0
3.2943587741487255,0.021046094890952653,0.002025173360819865,-0.054085128095110235,1.0,0.0
3.2921951646907583,0.02116197060018353,0.00202524870095111,-0.05409230786565389,1.0,0.0
3.29003127922304,0.021277859115144196,0.002025321942352609,-0.054098989444485435,1.0,0.0
3.2857027447986416,0.02150966838288959,0.0020254708380955666,-0.054111046754410363,1.0,0.0
