1.1452612684088046,-0.42899670293730485,-0.47199277695738884,0.04946830399729296,0.5999999999999999,-0.6
1.1536146216077212,-0.41656851651842797,-0.461368593198328,0.050541231796421116,0.5999999999999999,-0.6
1.1702033529376896,-0.3887012269646725,-0.4397794995621327,0.05229647106433677,0.5999999999999999,-0.5499999999999999
1.1783017918793326,-0.3733996970058839,-0.4289424644216724,0.053078363049704036,0.5999999999999999,-0.49999999999999994
1.1934559471620205,-0.3417195244691576,-0.40826461390508495,0.05081773699346148,0.5999999999999999,-0.49999999999999994
1.1994020076914678,-0.32927511382291125,-0.4012541037709778,0.04960385439232318,0.5999999999999999,-0.44999999999999996
1.2098165729531503,-0.306136693825455,-0.38985583005832414,0.04917101747913799,0.5999999999999999,-0.44999999999999996
1.2145958010109348,-0.2944302488688562,-0.38461829569376915,0.049236568730731234,0.5999999999999999,-0.39999999999999997
1.2227060801669845,-0.27349425276554784,-0.37675154962409074,0.047029604399910774,0.5999999999999999,-0.39999999999999997
1.2260915300923396,-0.2642953442243902,-0.3740647440184879,0.04562348064049537,0.5999999999999999,-0.39999999999999997
1.2310687031097927,-0.2513479852229505,-0.37305515625961627,0.04407329283178485,0.5999999999999999,-0.39999999999999997
1.2330984735855366,-0.2458662601809528,-0.3733822435132681,0.04368140781430663,0.5999999999999999,-0.39999999999999997
1.234937698839138,-0.2405732644345802,-0.37388401578127084,0.04338931211783703,0.5999999999999999,-0.39999999999999997
1.2381402063564386,-0.23017558865539975,-0.3750702800438206,0.042914782907078175,0.5999999999999999,-0.39999999999999997
1.2395209960873652,-0.2250073859053653,-0.3756913846310477,0.04270489621895179,0.5999999999999999,-0.39999999999999997
1.2418555283609822,-0.21469847236764886,-0.3769410910575268,0.04231312903322193,0.5999999999999999,-0.39999999999999997
1.2428113966479521,-0.20955899600006095,-0.3775644737889339,0.042129287465710874,0.5999999999999999,-0.39999999999999997
1.2443041052552533,-0.19932108262835213,-0.3788047953356122,0.04178340790729673,0.5999999999999999,-0.39999999999999997
1.244842401259397,-0.19422780636827175,-0.37942146997313886,0.04162056998854968,0.5999999999999999,-0.39999999999999997
1.2455062282989722,-0.18410941493748031,-0.3806479501333593,0.04131442371572369,0.5999999999999999,-0.35
1.2456333255174155,-0.17909099116989072,-0.3812578972937728,0.04117018507026482,0.5999999999999999,-0.35
1.245349092922487,-0.17010207425903076,-0.3830909624876355,0.03970266733977046,0.5999999999999999,-0.35
1.244681095572263,-0.16801285944590216,-0.3856154561030998,0.03889319925360235,0.5999999999999999,-0.35
1.2427441286204475,-0.16605149618442605,-0.391929146348847,0.03807336047124754,0.5999999999999999,-0.35
1.2415665330335268,-0.1656444145181784,-0.3952986329107748,0.03777936543435234,0.5999999999999999,-0.35
1.238873800383214,-0.16560146056256161,-0.4021371924224244,0.03726392916842358,0.5999999999999999,-0.35
1.237373275872559,-0.1659293706262896,-0.4055701334081352,0.037026731055889606,0.5999999999999999,-0.35
1.2340894900122428,-0.1672635695094315,-0.41243630333438164,0.03658283830215825,0.6499999999999999,-0.35
1.2323151469183733,-0.16826985184236884,-0.4158666961087387,0.036373666170542274,0.6499999999999999,-0.35
1.2304582939393325,-0.16950324262802072,-0.419294777849315,0.036173545008348906,0.6499999999999999,-0.35
1.2264967370374467,-0.17264621608309394,-0.4261374259399513,0.03513348129686067,0.6499999999999999,-0.35
1.224384156101508,-0.17455090963054293,-0.4295468703497034,0.03449519546313362,0.6499999999999999,-0.35
1.2199171415173153,-0.17903339923050474,-0.43634151106829777,0.03329735890001806,0.6499999999999999,-0.35
1.2175728954811735,-0.1816132810852074,-0.43972743119824087,0.03273548096271117,0.6499999999999999,-0.35
1.2126882201402376,-0.1874561179891567,-0.4464781956186481,0.031681587772418585,0.6499999999999999,-0.35
1.2101578178523962,-0.190721174980993,-0.44984365598616094,0.031188514977839255,0.6499999999999999,-0.35
1.2049458605486547,-0.19794256507563865,-0.45655602974030685,0.03026214677181338,0.6499999999999999,-0.35
1.2022743033534433,-0.20189971623999714,-0.45990355674934325,0.029830002226351793,0.6499999999999999,-0.35
1.1968245510770321,-0.21051088124322762,-0.4665822257468035,0.02901567082587375,0.6499999999999999,-0.35
1.1940562408471715,-0.2151649641821399,-0.4699139114216162,0.02863388863268579,0.6499999999999999,-0.35
1.1884570544033943,-0.22517116149773544,-0.47656311972176857,0.027919018470841328,0.6499999999999999,-0.35
1.1856357167273608,-0.23052418129892802,-0.47988085909283673,0.02758411747108691,0.6499999999999999,-0.35
1.179973902997498,-0.24192665296911675,-0.48650404287615734,0.026955489955422074,0.6499999999999999,-0.35
1.1771428246316136,-0.24797615474706738,-0.489809740108891,0.026661720527995092,0.6499999999999999,-0.39999999999999997
1.1743178675636041,-0.25425755588218135,-0.4931117046895761,0.026379299910438636,0.6499999999999999,-0.39999999999999997
1.1689791672044525,-0.26628115073135966,-0.4988412025031168,0.027365722129233827,0.6499999999999999,-0.39999999999999997
1.1668615032030396,-0.27033685367143834,-0.5000426070461674,0.027726873174876765,0.6499999999999999,-0.39999999999999997
1.1631035206127296,-0.2774137677400645,-0.501368071512651,0.02780983912598023,0.6499999999999999,-0.39999999999999997
1.1613654684559664,-0.28085067762863164,-0.5018460429127285,0.02776211588164279,0.6499999999999999,-0.39999999999999997
1.1581023432532789,-0.28781190817422325,-0.502706920538907,0.027639948964362393,0.6499999999999999,-0.39999999999999997
1.1565717420581876,-0.29136412961334696,-0.5031204123729625,0.027577962444193194,0.6499999999999999,-0.39999999999999997
1.1537133657112075,-0.29862551574380125,-0.5039370610957381,0.027459217676713665,0.6499999999999999,-0.39999999999999997
1.1523875359685969,-0.3023340012109199,-0.5043428096999907,0.02740209853222164,0.6499999999999999,-0.39999999999999997
1.1499487943443183,-0.30989919625391027,-0.5051513554287328,0.027296653706337937,0.6499999999999999,-0.39999999999999997
1.1488380497880095,-0.3137536737549173,-0.5055544078253873,0.027246933763444225,0.6499999999999999,-0.39999999999999997
1.146839986177926,-0.3215964192429598,-0.506358428403626,0.02715450636790684,0.6499999999999999,-0.39999999999999997
1.1459547047245622,-0.3255818749644917,-0.5067594472189467,0.027110744532598874,0.6499999999999999,-0.39999999999999997
1.1451466754698052,-0.3296075180265111,-0.5071598474978529,0.02706915153334566,0.6499999999999999,-0.39999999999999997
1.1437662159651074,-0.3377722196817519,-0.5079589473388882,0.026990509407481822,0.6499999999999999,-0.39999999999999997
1.1431956730396282,-0.3419075535309833,-0.5083576725723518,0.026953559238161562,0.6499999999999999,-0.39999999999999997
1.1422977830134136,-0.35027659402790035,-0.5091536122083874,0.02688555479695598,0.6499999999999999,-0.44999999999999996
1.141972333951189,-0.3545052498584592,-0.5095508739337485,0.026853697375679886,0.6499999999999999,-0.44999999999999996
1.1419119710743766,-0.3619037718469283,-0.5095322819908058,0.02849284313527778,0.6499999999999999,-0.44999999999999996
1.1426980662472026,-0.36335468202010496,-0.5078481521504795,0.029159587983907054,0.6499999999999999,-0.44999999999999996
1.1449896449034809,-0.36456332908930444,-0.5033968724495752,0.02973528915591217,0.6499999999999999,-0.44999999999999996
1.1463462694444795,-0.36472671057182743,-0.5009870862242853,0.029906976381539607,0.6499999999999999,-0.44999999999999996
1.1493498763239758,-0.36445702685550435,-0.49607916716772493,0.03018685295288992,0.6499999999999999,-0.44999999999999996
1.1509755200663696,-0.3640489937442494,-0.4936121791716651,0.030312920392534082,0.6499999999999999,-0.44999999999999996
1.1544395927838065,-0.3627011576592681,-0.48867625754233,0.0305425165308848,0.6499999999999999,-0.44999999999999996
1.1562670931409682,-0.36175891834768464,-0.48620965722717013,0.030650513998159656,0.6499999999999999,-0.44999999999999996
1.160086027664203,-0.35933216582488076,-0.48128110833215776,0.030852670733754417,0.6499999999999999,-0.44999999999999996
1.1620669412564997,-0.3578446888045131,-0.47881917142334585,0.030947249473017635,0.6499999999999999,-0.44999999999999996
1.1661455219816175,-0.3543145839944249,-0.4738996909467611,0.03112414682133724,0.6499999999999999,-0.44999999999999996
1.168232431536606,-0.3522701598536288,-0.47144212636456495,0.031207088579339404,0.6499999999999999,-0.44999999999999996
1.1703440453088434,-0.35003810770911403,-0.46898589727959644,0.03128622379975465,0.6499999999999999,-0.39999999999999997
1.1746196831007156,-0.34500916391197006,-0.4640773297200736,0.03143486216969538,0.6499999999999999,-0.39999999999999997
1.176530537570945,-0.3431162903250315,-0.46223573982676724,0.030057254146057533,0.6499999999999999,-0.39999999999999997
1.1791541334187623,-0.3432218245476741,-0.46174036906197263,0.029043174922674497,0.6499999999999999,-0.39999999999999997
1.1802884196286882,-0.3438327499814412,-0.461983277847312,0.0288434685715675,0.6499999999999999,-0.39999999999999997
1.1824724511943958,-0.3453066612334738,-0.4627152498466154,0.028577409565482048,0.6499999999999999,-0.39999999999999997
1.1835517816667844,-0.346080990744121,-0.4631213728523514,0.028468871985279254,0.6499999999999999,-0.39999999999999997
1.1857079721184898,-0.34763888989020375,-0.46395035392566397,0.028272360254559592,0.6499999999999999,-0.39999999999999997
1.1867875302532511,-0.3484155273313081,-0.46436629184606804,0.02818131445329186,0.6499999999999999,-0.39999999999999997
1.1878685110805054,-0.3491898778036769,-0.4647815983426863,0.02809440380202144,0.6499999999999999,-0.39999999999999997
1.1900360600467008,-0.3507283937651092,-0.46560918125222445,0.0279311495855048,0.6499999999999999,-0.39999999999999997
1.1911229373050645,-0.35149183404082407,-0.46602134605618406,0.02785484763115731,0.6499999999999999,-0.39999999999999997
1.1933027874705284,-0.35300845354181953,-0.46684238498955166,0.027714948856431887,0.6499999999999999,-0.39999999999999997
1.1943961248788126,-0.35376054451590566,-0.467251329737648,0.027644860164858898,0.6499999999999999,-0.39999999999999997
1.196589260426336,-0.3552539012600268,-0.4680663354057719,0.027519352565489985,0.6499999999999999,-0.39999999999999997
1.197689224666313,-0.3559947479794926,-0.4684724536094388,0.027460654484284808,0.6499999999999999,-0.39999999999999997
1.1998960759772679,-0.35746415663705694,-0.46928215017647035,0.027350088089518998,0.6499999999999999,-0.44999999999999996
1.201059134496918,-0.35798475897904614,-0.4695659880471724,0.028516426204806322,0.6499999999999999,-0.44999999999999996
1.204917824551436,-0.35358964654143504,-0.4663075444577518,0.029809150210982294,0.6499999999999999,-0.44999999999999996
1.2070811906909527,-0.3503735209287459,-0.4640654760493543,0.030062233664881255,0.6499999999999999,-0.44999999999999996
1.2114877281983216,-0.34301969799293974,-0.4592683191481284,0.030374347573087546,0.6499999999999999,-0.44999999999999996
1.2136802616125615,-0.3389994533263514,-0.45681821792514776,0.03049827138026684,0.6499999999999999,-0.44999999999999996
1.21584904736254,-0.3347776124403669,-0.454358825268113,0.03060845163110848,0.6499999999999999,-0.44999999999999996
1.220086444106698,-0.3257517687142911,-0.4494332878681103,0.030815431876136223,0.6499999999999999,-0.44999999999999996
1.2221426442058412,-0.3209539164112957,-0.4469710579290458,0.03091205331953928,0.6499999999999999,-0.44999999999999996
1.2261024018074316,-0.310795109319113,-0.44205027630934834,0.031091803947077112,0.6499999999999999,-0.44999999999999996
1.2279951454776779,-0.3054372939319551,-0.4395919484701062,0.031176194551675307,0.6499999999999999,-0.44999999999999996
1.2315799861535899,-0.29417218087038977,-0.4346793792575687,0.03133359158413174,0.6499999999999999,-0.44999999999999996
1.2332615206771325,-0.28826896758033344,-0.43222512580528033,0.031407462474658976,0.6499999999999999,-0.44999999999999996
1.236377826778766,-0.27592809414145275,-0.4273202024834434,0.03154591874270385,0.6499999999999999,-0.44999999999999996
1.2378024664361016,-0.26949470611502113,-0.42486946227135763,0.03160976141982319,0.6499999999999999,-0.39999999999999997
1.2403601943885445,-0.25611239792742846,-0.419971097492927,0.031731332811084645,0.6499999999999999,-0.39999999999999997
1.2414834975894085,-0.24916872321721278,-0.41752342626144645,0.03178880442596421,0.6499999999999999,-0.39999999999999997
1.2426896156921978,-0.23849735630318714,-0.41511773076724656,0.02973590039828844,0.6499999999999999,-0.39999999999999997
1.2428125131962158,-0.23473372204857204,-0.4151215906362358,0.02937825101108027,0.6499999999999999,-0.39999999999999997
1.2427809178444822,-0.2312739646467882,-0.4153632686105437,0.0291607071948905,0.6499999999999999,-0.39999999999999997
1.2423801312907434,-0.22471909831718592,-0.416100591831914,0.02886633913109149,0.6499999999999999,-0.39999999999999997
1.2420344083138724,-0.22153052888937239,-0.41651056864444946,0.02874439217738156,0.6499999999999999,-0.39999999999999997
1.241072774296696,-0.21526950565712072,-0.41734744659436657,0.028523427718581296,0.6499999999999999,-0.39999999999999997
1.2404604310414755,-0.21219387399731096,-0.4177672584233603,0.028422055134715185,0.6499999999999999,-0.39999999999999997
1.2389788854698456,-0.2061577219835479,-0.41860433173308387,0.02823066447528344,0.6499999999999999,-0.39999999999999997
1.2381120047575391,-0.2032000250002256,-0.41902111022424937,0.028143579298643306,0.6499999999999999,-0.39999999999999997
1.2361317116572441,-0.19741446142771552,-0.4198509975245158,0.027974308837063866,0.6499999999999999,-0.39999999999999997
1.2350207034797884,-0.19458997483499038,-0.4202641007154623,0.02789617041038972,0.6499999999999999,-0.39999999999999997
1.2338306583085452,-0.1918142302408626,-0.42067610148738444,0.02782099294186513,0.6499999999999999,-0.39999999999999997
1.231218755363127,-0.18641491460896745,-0.4214968242207151,0.027680623230533108,0.6499999999999999,-0.35
1.2297995696679125,-0.1837941399640591,-0.42190566517195227,0.02761423364903659,0.6499999999999999,-0.35
1.2261798521214449,-0.1824434072015572,-0.42525535359719013,0.02559799561884124,0.6499999999999999,-0.35
1.2240105121424423,-0.1836280905653329,-0.42812499822791517,0.02518812436689677,0.6499999999999999,-0.3
1.2193621577388196,-0.18733425481098442,-0.43442505183664737,0.024666026044083855,0.6499999999999999,-0.3
1.2167833471806095,-0.19059253333775988,-0.4383044561568693,0.023408148747319224,0.6499999999999999,-0.3
1.2107164021586234,-0.2023817187623574,-0.44927162012487587,0.022155129809701357,0.6499999999999999,-0.3
1.207469084135794,-0.20944743189595946,-0.45524108422452325,0.02178255275153007,0.6499999999999999,-0.3
1.2007192849379487,-0.22502483346440474,-0.4674145161354104,0.021164156854244887,0.6499999999999999,-0.3
1.197243645042056,-0.23344558626973427,-0.4735373395703255,0.020885550234115424,0.6499999999999999,-0.3
1.1901297491224283,-0.2514862584145905,-0.48579408106202826,0.02036769900766755,0.6499999999999999,-0.35
1.1865034261721368,-0.26109913641367755,-0.4919216016843686,0.020126439348223446,0.6499999999999999,-0.35
1.1831021666000419,-0.26989556644577906,-0.4972101399754918,0.02122954609402794,0.6499999999999999,-0.39999999999999997
1.177226194162443,-0.2843421919703453,-0.5047355577364188,0.02268641505356972,0.6499999999999999,-0.39999999999999997
1.1749855278568535,-0.28918683031689024,-0.506453053708779,0.02347707539681121,0.6499999999999999,-0.39999999999999997
1.1712730174664205,-0.2968886068539766,-0.5080377055174166,0.024089341504802908,0.6499999999999999,-0.39999999999999997
1.1696177884233967,-0.30048170661517193,-0.5085122357123175,0.024220122957204993,0.6499999999999999,-0.39999999999999997
1.166570944654077,-0.3076783213107525,-0.5093042546554629,0.024402938394104012,0.6499999999999999,-0.39999999999999997
1.1651659134164267,-0.31133228392470524,-0.5096749048218956,0.024478376846662542,0.6499999999999999,-0.39999999999999997
1.1625856631760663,-0.3187834770556327,-0.5104059928209028,0.02461669727296112,0.6499999999999999,-0.39999999999999997
1.1614112448269598,-0.32258082841744207,-0.5107707909171209,0.024680957312675167,0.6499999999999999,-0.39999999999999997
1.1603148097393685,-0.32642511033903876,-0.5111360498130701,0.024742270195602156,0.6499999999999999,-0.39999999999999997
1.1583597557337022,-0.3342458812072746,-0.5118687753644466,0.02485726499351726,0.6499999999999999,-0.39999999999999997
1.1575028155146607,-0.33821885373480737,-0.5122363149305922,0.024911255118694298,0.7,-0.39999999999999997
1.1560337084443466,-0.34628237506276727,-0.5129736857726741,0.02501249417052165,0.7,-0.39999999999999997
1.1554231225566116,-0.3503688790461991,-0.513343476305206,0.025058799841371604,0.75,-0.39999999999999997
1.1544261823652056,-0.35862531656490254,-0.5140740232635448,0.02433183763076241,0.75,-0.39999999999999997
1.154031634716437,-0.3627864470850783,-0.5144307639252195,0.02379869145807012,0.75,-0.39999999999999997
1.1534192782769457,-0.3711476777583232,-0.5151126691133123,0.02226909435050972,0.75,-0.39999999999999997
1.1532027630003887,-0.37534326218572694,-0.515437305993476,0.02155827728037618,0.75,-0.44999999999999996
1.1530485357458662,-0.37954733925073786,-0.5157515744893213,0.020881012699232482,0.75,-0.44999999999999996
1.1537308078683373,-0.3854416525671208,-0.5145335398765507,0.02174458840937432,0.75,-0.44999999999999996
1.154807309701239,-0.3863578783355271,-0.5124535110741268,0.021657724122480015,0.75,-0.44999999999999996
1.1574918276369703,-0.38685770186179425,-0.5075552971713826,0.021084328321070434,0.75,-0.44999999999999996
1.1589945894104172,-0.3867024244256387,-0.504973875645012,0.02075695463469529,0.75,-0.44999999999999996
1.1622252389941072,-0.3857632346117923,-0.4997321869258453,0.02012932971624526,0.75,-0.44999999999999996
1.1639358503019552,-0.3849954037073969,-0.4970930573733956,0.019832268823424704,0.75,-0.44999999999999996
1.167517683122071,-0.38286972450757717,-0.49179528795051564,0.019281344478180307,0.75,-0.44999999999999996
1.169378613121185,-0.381509921814326,-0.48913878378498965,0.019026394755483178,0.75,-0.44999999999999996
1.173214576840111,-0.3781924497691955,-0.4838130106383607,0.01855188388260509,0.75,-0.44999999999999996
1.175179485781775,-0.3762323933945244,-0.4811442902016876,0.01833122279370447,0.75,-0.44999999999999996
1.1791771259221093,-0.3717056954189281,-0.47579623807562443,0.017922866249761915,0.75,-0.44999999999999996
1.1811994860392168,-0.3691371033308024,-0.47311715418034694,0.01773285694236537,0.75,-0.44999999999999996
1.1852646879573798,-0.3633876363480336,-0.46774990421216467,0.017381477201934503,0.75,-0.44999999999999996
1.1872967109791852,-0.3602064782604004,-0.4650620218193291,0.017218050559017595,0.75,-0.44999999999999996
1.1893211469319669,-0.3568209587129846,-0.4623715126135082,0.01706362264271366,0.75,-0.44999999999999996
1.1933261591063928,-0.34943517910826644,-0.45698279779415696,0.016778225082413778,0.75,-0.44999999999999996
1.1952958168795902,-0.34543559770327675,-0.4542849071571995,0.01664184227427179,0.75,-0.44999999999999996
1.1991417544254226,-0.33682737439825033,-0.44888263081650637,0.0163939345046471,0.75,-0.44999999999999996
1.2010074368985348,-0.3322189464711882,-0.4461783988780019,0.016278945828009928,0.75,-0.44999999999999996
1.2045966562462767,-0.322399359893267,-0.4407643633111529,0.016066069908578173,0.75,-0.44999999999999996
1.2063094069003553,-0.31719037601738614,-0.43805469960742505,0.015966988116035585,0.75,-0.44999999999999996
1.2095442878260283,-0.30618050732298147,-0.4326305394949941,0.01578338406109725,0.75,-0.39999999999999997
1.2110556641328307,-0.30038288418867265,-0.42991619983112006,0.01569787322980898,0.75,-0.39999999999999997
1.2138402097120085,-0.28823569458873566,-0.4244673924067359,0.014521315171586613,0.75,-0.35
1.2146188730169896,-0.28397385048028706,-0.4232191074327867,0.013591224515593137,0.75,-0.35
1.2151213492028092,-0.2788339375867387,-0.42330406800560105,0.011330144347670545,0.75,-0.35
1.214637003721781,-0.2790458665230667,-0.425349429652095,0.010385259607889274,0.75,-0.35
1.2139054600557673,-0.2801444778148821,-0.4279771890714259,0.009790758425996193,0.75,-0.35
1.212057351819346,-0.28360495228102794,-0.4338491164275675,0.008949893030126832,0.75,-0.35
1.2110098817544435,-0.28572773649858607,-0.436884119074314,0.008597999007807111,0.75,-0.35
1.2087339898435763,-0.2905907315621796,-0.442993543881415,0.007956008478894105,0.75,-0.35
1.2075185036576832,-0.2933151099707589,-0.4460509317768766,0.007660874812661866,0.75,-0.35
1.2049558818761434,-0.2993415357467299,-0.45215895615676116,0.007114064092261341,0.75,-0.35
1.2036172376772842,-0.30264286688637926,-0.4552085831987318,0.006860926836019132,0.75,-0.39999999999999997
1.2008454235665251,-0.3098230451893033,-0.46129893077208184,0.006389258996342795,0.75,-0.39999999999999997
1.19942004862618,-0.3137032067518646,-0.4643396527202972,0.00617032403991713,0.75,-0.39999999999999997
1.1975581862645448,-0.3179073387815261,-0.4675345957436421,0.00789883846238082,0.75,-0.39999999999999997
1.1970108752329243,-0.3186698429729048,-0.4680216113528548,0.008052840202747547,0.75,-0.39999999999999997
1.1960949058618076,-0.3196863601259731,-0.46849216613521794,0.008093543840796968,0.75,-0.39999999999999997
1.1956712530327183,-0.32013066462094397,-0.4686421096803821,0.008078590576516609,0.75,-0.39999999999999997
1.1952582142373278,-0.3205741877182304,-0.4687744931026021,0.00805790222892333,0.75,-0.39999999999999997
1.1944552499736352,-0.3214899757688433,-0.46902005260975876,0.008013230972363283,0.75,-0.39999999999999997
1.1940643096758643,-0.32196754723091753,-0.4691393506386521,0.00799393489488831,0.75,-0.39999999999999997
1.1933035363253057,-0.32296786365332913,-0.46937560216871654,0.007954728807614941,0.75,-0.39999999999999997
1.1929346364618236,-0.32348946090870184,-0.4694930802929087,0.00793568309400361,0.75,-0.39999999999999997
1.1922210128000235,-0.3245769503163227,-0.4697272080462578,0.007901293607251114,0.75,-0.39999999999999997
1.1918772382002927,-0.32514182674341585,-0.4698439134255268,0.007885378846205215,0.75,-0.39999999999999997
1.1912173546462932,-0.32631353712240746,-0.47007668610025855,0.007854491288384668,0.75,-0.44999999999999996
1.1909020737496647,-0.326919519858594,-0.47019278770901884,0.007842441789908117,0.75,-0.44999999999999996
1.190621023992429,-0.3269679094442985,-0.469594671472664,0.009531687763083996,0.75,-0.44999999999999996
1.1911215891901756,-0.3246280206448883,-0.4676091182151336,0.010227884047150138,0.75,-0.44999999999999996
1.1925308553177505,-0.3181430438983637,-0.46253275521283976,0.01083974222184425,0.75,-0.44999999999999996
1.193295977137589,-0.31443775275638663,-0.45980837114577433,0.011023167916285548,0.75,-0.44999999999999996
1.194822670634436,-0.30641428876074583,-0.45427111134338594,0.011325542945817002,0.75,-0.44999999999999996
1.1955629843993925,-0.3021302127188002,-0.4514898830331333,0.011459322716894205,0.75,-0.44999999999999996
1.1969642161695109,-0.29304120774826015,-0.445925700426959,0.011705087394745517,0.75,-0.44999999999999996
1.1976138190483279,-0.28824070355877873,-0.44314536118116,0.011819010260612384,0.75,-0.44999999999999996
1.19878533257563,-0.27813101975564547,-0.437589254486336,0.01202960975195766,0.75,-0.39999999999999997
1.1992969543239698,-0.2728244374099812,-0.43481367031237106,0.012127260936548812,0.75,-0.39999999999999997
1.1997523587245347,-0.26735214313063355,-0.43203971245869077,0.012218586851484359,0.75,-0.39999999999999997
1.1996937253176063,-0.25962556146558546,-0.4290676605393067,0.010203663396928464,0.75,-0.39999999999999997
1.199224779098077,-0.25728343120673147,-0.42878798901714177,0.009874761087694361,0.75,-0.39999999999999997
1.197971964074151,-0.25331200487429545,-0.42880504599397873,0.009552800727061994,0.75,-0.39999999999999997
1.197243826878777,-0.25146343451080705,-0.4289098617222715,0.009445069604035572,0.75,-0.39999999999999997
1.1956278480687295,-0.24788724323704509,-0.4291643061527417,0.00926181715161456,0.75,-0.39999999999999997
1.1947458370763568,-0.24614511856581966,-0.4292977731687597,0.009179014177530975,0.75,-0.39999999999999997
1.192840583157012,-0.24274813184818894,-0.42956517831483865,0.009027287075936918,0.75,-0.39999999999999997
1.1918194532981252,-0.24109348572132963,-0.4296978953763442,0.008956129258149925,0.75,-0.39999999999999997
1.189644489931866,-0.23787676740694969,-0.42996056941060434,0.00882620373907228,0.75,-0.39999999999999997
1.1884925247902938,-0.2363162320952518,-0.4300905381786577,0.008765274627621666,0.75,-0.39999999999999997
1.1860638288202707,-0.23329749727538712,-0.43034783713951597,0.008652456230122896,0.75,-0.39999999999999997
1.1847891415683014,-0.23184008901080497,-0.43047525425176003,0.008600351372733961,0.75,-0.39999999999999997
1.1834754239493586,-0.2304186009373277,-0.43060192029243094,0.008551858259120193,0.75,-0.39999999999999997
1.180734626598772,-0.22768881911273048,-0.43085308675970313,0.008458876848697505,0.75,-0.39999999999999997
1.179309585192748,-0.22638193766375628,-0.430977663983807,0.008416066033806402,0.75,-0.39999999999999997
1.176355161236831,-0.22388866887725067,-0.43122489285032284,0.00833648325543579,0.75,-0.39999999999999997
1.1748277449083215,-0.22270448905166448,-0.43134768238239896,0.008299378349177378,0.75,-0.39999999999999997
1.1716783353521705,-0.22046177409173262,-0.4315915898052658,0.008231161103143592,0.75,-0.39999999999999997
1.170058312050144,-0.21940536176759753,-0.43171282068424266,0.008199152476908722,0.75,-0.39999999999999997
1.1667332755533044,-0.2174251881484811,-0.43195394063178094,0.008140344669925303,0.75,-0.39999999999999997
1.165030292416993,-0.21650392206361854,-0.43207382959352225,0.008112512296641894,0.75,-0.39999999999999997
1.1633020024235055,-0.21562820489551485,-0.4321933456013014,0.008086762303568973,0.75,-0.39999999999999997
1.159773801682912,-0.21401738421619318,-0.43243131059566675,0.008037912172698336,0.75,-0.39999999999999997
1.1579762050156308,-0.21328346138158685,-0.4325497684381765,0.008015775618245291,0.75,-0.39999999999999997
1.1543197008634012,-0.21196184966106785,-0.43278577022164755,0.007974307890298071,0.75,-0.39999999999999997
1.152463232963403,-0.2113746828095325,-0.4329033612345863,0.00795519785528609,0.75,-0.39999999999999997
1.1505894944598054,-0.21083746779158352,-0.4330206738530853,0.007936335686546059,0.75,-0.39999999999999997
1.1467952933170824,-0.20991274541889207,-0.43325455210605446,0.007902423874602382,0.75,-0.39999999999999997
1.144877101020552,-0.20952690833731943,-0.43337115408568505,0.007886358123770476,0.75,-0.39999999999999997
1.1410049514662433,-0.20890758559522343,-0.43360373897770255,0.007857360744191189,0.75,-0.39999999999999997
1.1390533432427894,-0.20867515339405573,-0.43371974025443083,0.007843080020841109,0.75,-0.39999999999999997
1.1351252078746963,-0.20836673063360564,-0.43395123365975863,0.007817813519593653,0.75,-0.39999999999999997
1.133151165877304,-0.20829086314029277,-0.4340667329750463,0.00780625688826686,0.75,-0.39999999999999997
1.1311721493307492,-0.20826730503434351,-0.4341820624934265,0.007794393215771578,0.75,-0.39999999999999997
1.1272042711966779,-0.20837657797818818,-0.43441233575880667,0.00777343454087287,0.75,-0.39999999999999997
1.1252178263045347,-0.2085100298900176,-0.4345272842075817,0.007764709849749529,0.75,-0.39999999999999997
1.1212460790271612,-0.20893478786844605,-0.4347567803483491,0.007746042856520141,0.75,-0.39999999999999997
1.1192633960346718,-0.20922539215348765,-0.4348713801951647,0.007737411816230555,0.75,-0.39999999999999997
1.11531041949706,-0.20996327458677616,-0.43510021728137394,0.007721976024058552,0.75,-0.39999999999999997
1.1133425382009052,-0.21041080914646973,-0.4352144723857011,0.007714951779155266,0.75,-0.39999999999999997
1.1094301952680226,-0.2114619002489151,-0.4354427237696873,0.007701765451603393,0.7,-0.39999999999999997
1.1074881911737966,-0.21206496273404693,-0.43555672752607244,0.007695503017730143,0.7,-0.39999999999999997
1.1036395341657668,-0.2134260664627581,-0.4357849701259472,0.00783025033959106,0.6499999999999999,-0.39999999999999997
1.1017470306192874,-0.21418916916164832,-0.435903526367588,0.008209487275364191,0.6499999999999999,-0.39999999999999997
1.0980539350629495,-0.21588829716163038,-0.4361582289314887,0.00926462851601384,0.5999999999999999,-0.39999999999999997
1.096268792748437,-0.2168298908104445,-0.4362994270915429,0.009978749739629755,0.5499999999999998,-0.39999999999999997
1.094528754873072,-0.21783349202891025,-0.43645134350816106,0.010814855365129272,0.5499999999999998,-0.39999999999999997
1.0912197972648718,-0.22003937234886792,-0.4367986365265938,0.012889975172333923,0.5499999999999998,-0.39999999999999997
1.0896586843379725,-0.22124382279715088,-0.43699683881631357,0.014228884166842315,0.5499999999999998,-0.39999999999999997
1.0867545259450686,-0.22386279292341565,-0.43745131313380137,0.01687134309798788,0.5499999999999998,-0.39999999999999997
1.0854097532075406,-0.22527525360998726,-0.43770716983747265,0.018119336433059408,0.5499999999999998,-0.39999999999999997
1.0829308948493153,-0.2283004456693031,-0.43827305773891817,0.020484300034735003,0.5499999999999998,-0.39999999999999997
1.0817955584526604,-0.22990966431774587,-0.4385817757098288,0.02160336954935982,0.5499999999999998,-0.39999999999999997
1.0797301417714982,-0.2333136880044307,-0.43924763566780267,0.023719105429475418,0.5499999999999998,-0.39999999999999997
1.0787990212210314,-0.23510555207231792,-0.43960358972716457,0.024720744043003506,0.5499999999999998,-0.39999999999999997
1.0771370274343204,-0.2388642324098182,-0.4403587099344417,0.026613680498998926,0.5499999999999998,-0.39999999999999997
1.076405400728622,-0.24082746451850742,-0.4407568299853741,0.027509386054645146,0.5999999999999999,-0.39999999999999997
1.0751388450523414,-0.24491422480040498,-0.44159184080537384,0.029202884872078894,0.5999999999999999,-0.39999999999999997
1.074596719183708,-0.2470312916981335,-0.44202507317816514,0.02959745039689099,0.5999999999999999,-0.39999999999999997
1.0736561785479035,-0.2513919060328359,-0.442908044844545,0.030222911335647806,0.5999999999999999,-0.39999999999999997
1.0732583626227332,-0.2536330999690041,-0.4433564100486488,0.03051677442788403,0.5999999999999999,-0.39999999999999997
1.0726096283440876,-0.25822974202472754,-0.4442656246604395,0.031068694718315415,0.5999999999999999,-0.39999999999999997
1.0723592908241566,-0.26058312987921134,-0.4447261565246924,0.03132890642996622,0.5999999999999999,-0.39999999999999997
1.072158687580866,-0.2629718913021734,-0.44519044612452474,0.03157846720597335,0.5999999999999999,-0.39999999999999997
1.0719078110337443,-0.2678509932115075,-0.4461297744314576,0.03204803742805673,0.5999999999999999,-0.39999999999999997
1.0718580634664803,-0.2703392523551893,-0.4466045060024322,0.032269047877355295,0.5999999999999999,-0.44999999999999996
1.0719439290098152,-0.2752668858532206,-0.4474849292951216,0.03383308178514688,0.5999999999999999,-0.44999999999999996
1.0725774777420645,-0.2757344753785236,-0.44633663161485704,0.034938575211280964,0.5999999999999999,-0.44999999999999996
1.0745395051025195,-0.2743912362891745,-0.4423801921983244,0.036135961400268535,0.5999999999999999,-0.44999999999999996
1.0756871644149555,-0.2731954270049415,-0.44011828704222355,0.03653277868186788,0.5999999999999999,-0.44999999999999996
1.0781601660655147,-0.2701967675304675,-0.4354617157083336,0.03720875829216497,0.5999999999999999,-0.44999999999999996
1.0794616284398648,-0.2684368059952031,-0.43311589936974876,0.037516832756407936,0.5999999999999999,-0.44999999999999996
1.082158750437033,-0.2644251032444442,-0.4284262995086879,0.03809239038992973,0.5999999999999999,-0.44999999999999996
1.0835431980703716,-0.2621756378052554,-0.4260864189989664,0.03836220739167984,0.5999999999999999,-0.44999999999999996
1.0863583889243493,-0.257187966801671,-0.42141873398076574,0.03886993466131772,0.5999999999999999,-0.39999999999999997
1.0877791543262394,-0.25444888358247103,-0.4190909135219617,0.039108600588622755,0.5999999999999999,-0.39999999999999997
1.0892019478061366,-0.25154666091549216,-0.416767028806155,0.03933711895897174,0.5999999999999999,-0.39999999999999997
1.091627864662664,-0.24710427112909739,-0.41349780573742567,0.037915953219517684,0.5999999999999999,-0.39999999999999997
1.092392454607812,-0.24665277954650383,-0.4133930402720179,0.037571536115763804,0.5999999999999999,-0.39999999999999997
1.0936543230889746,-0.2467382742281878,-0.41407715781056176,0.03740166015152524,0.5999999999999999,-0.39999999999999997
1.094231757294153,-0.24695831499891627,-0.4145730260023271,0.037392381604326896,0.5999999999999999,-0.39999999999999997
1.0953413552367557,-0.24752477489537292,-0.4156427331607684,0.037401881564572914,0.5999999999999999,-0.39999999999999997
1.0958807995716555,-0.24784748089264141,-0.4161909505543672,0.03741064541653971,0.5999999999999999,-0.39999999999999997
1.0969356840395383,-0.24855625355346744,-0.4172944085300688,0.03742995382210568,0.5999999999999999,-0.39999999999999997
1.0974525678544658,-0.2489400383143106,-0.4178474519781328,0.037438796747045755,0.5999999999999999,-0.39999999999999997
1.09846723838226,-0.24976864859682102,-0.41895454273124244,0.03745660720105515,0.5999999999999999,-0.39999999999999997
1.0989659262837457,-0.2502134136568941,-0.4195083741657956,0.03746390020019619,0.5999999999999999,-0.39999999999999997
1.0999486267255234,-0.2511616163312384,-0.42061642651879894,0.03747937953595604,0.5999999999999999,-0.39999999999999997
1.1004332097242877,-0.2516669209869536,-0.42117062955917706,0.037487507435054024,0.5999999999999999,-0.39999999999999997
1.1009139497774938,-0.2521926601855518,-0.42172492941063533,0.03749363528355598,0.5999999999999999,-0.39999999999999997
1.1018657895555966,-0.25330520761702835,-0.42283380588179764,0.037506845002406086,0.5999999999999999,-0.39999999999999997
1.1023377784204795,-0.2538919964026375,-0.423388399769982,0.03751375669781276,0.5999999999999999,-0.39999999999999997
1.1032758278751422,-0.2551282864878246,-0.42449778144025496,0.0375247621373318,0.5999999999999999,-0.39999999999999997
1.1037427927880303,-0.25577771293648466,-0.42505259132128936,0.0375302738400729,0.5999999999999999,-0.39999999999999997
1.1046752014345445,-0.257137288504446,-0.4261624201319162,0.0375392261347649,0.5999999999999999,-0.39999999999999997
1.1051413824452965,-0.25784811324222606,-0.4267174037220044,0.03754506692521953,0.5999999999999999,-0.39999999999999997
1.1060758828813315,-0.25933230502543003,-0.42782754979470927,0.03755427977763226,0.5999999999999999,-0.39999999999999997
1.1065451236180168,-0.2601053565792263,-0.4283826951911077,0.037557889429681746,0.5999999999999999,-0.39999999999999997
1.1070163275545484,-0.260898765201723,-0.42893789101117497,0.03756195153936015,0.5999999999999999,-0.39999999999999997
1.1079663455256674,-0.2625470530737251,-0.43004837316472055,0.037570569992450675,0.5999999999999999,-0.39999999999999997
1.1084458791643008,-0.2634025206576662,-0.43060364885664026,0.03757398267674872,0.5999999999999999,-0.39999999999999997
1.1094166682476938,-0.2651732859943578,-0.43171432747810523,0.037580803824478703,0.5999999999999999,-0.39999999999999997
1.109908658059548,-0.2660890751168356,-0.4322697001791739,0.0375842226430696,0.5999999999999999,-0.39999999999999997
1.1109081656097928,-0.26798019985131294,-0.4333805345438768,0.03758970464222422,0.5999999999999999,-0.39999999999999997
1.111416538050614,-0.2689552821461776,-0.43393599383380077,0.037592915928307935,0.5999999999999999,-0.39999999999999997
1.1124525991829926,-0.27096377027208085,-0.43504700472884483,0.037598707118041474,0.5999999999999999,-0.39999999999999997
1.1129812353602753,-0.2719963085430456,-0.43560260211624224,0.037601196711003926,0.5999999999999999,-0.39999999999999997
1.1135174254754816,-0.2730478511840884,-0.4361582082652333,0.03760229938672044,0.5999999999999999,-0.39999999999999997
1.114613935742067,-0.27520787681860764,-0.43726944542238533,0.03760772901297571,0.5999999999999999,-0.39999999999999997
1.1151751824868725,-0.2763154436336069,-0.4378251033000755,0.03760942597627093,0.5999999999999999,-0.39999999999999997
1.1163254051514688,-0.27858560282415107,-0.43893649362828957,0.03761394116067551,0.5999999999999999,-0.39999999999999997
1.11691511684545,-0.2797479457326544,-0.43949218418296976,0.03761561553047188,0.5999999999999999,-0.39999999999999997
1.118126399085903,-0.2821225710738577,-0.44060385162526594,0.03761925771988195,0.5999999999999999,-0.39999999999999997
1.11874837941581,-0.28333593017466946,-0.44115968392910276,0.03762161629328231,0.5999999999999999,-0.39999999999999997
1.1193816861755892,-0.2845665380324056,-0.44171555061325485,0.037623169161918435,0.5999999999999999,-0.44999999999999996
1.120684173479168,-0.2870764152764772,-0.44282732083363774,0.03762547268147176,0.5999999999999999,-0.44999999999999996
1.1213538547913635,-0.2883560248790336,-0.44338323164915927,0.03762641045352799,0.5999999999999999,-0.44999999999999996
1.1237791096341807,-0.2867594278349795,-0.44139200389232336,0.03999338172735989,0.5999999999999999,-0.44999999999999996
1.1253293706902212,-0.284572695312962,-0.43941396591630744,0.04035817996946811,0.5999999999999999,-0.44999999999999996
1.1285841150351728,-0.27923880257361644,-0.43502294200268987,0.04080038735881941,0.5999999999999999,-0.44999999999999996
1.1302333160620812,-0.2762460823511699,-0.4327554411807446,0.0409739536158098,0.5999999999999999,-0.44999999999999996
1.1318800479653865,-0.27307082911970515,-0.43047479744188655,0.04113308135982563,0.5999999999999999,-0.44999999999999996
1.1351377875734576,-0.26620201343783423,-0.4259040943969912,0.04142720406999367,0.5999999999999999,-0.44999999999999996
1.136737583983237,-0.2625135275746928,-0.4236194499639525,0.04156449919491023,0.5999999999999999,-0.39999999999999997
1.1398534759849168,-0.2546355218880103,-0.4190554305059606,0.04182232626646498,0.5999999999999999,-0.39999999999999997
1.1413547092532947,-0.25050552329912706,-0.4167791271870489,0.04085171564926959,0.5999999999999999,-0.39999999999999997
1.1431653482581476,-0.24675775441771144,-0.41595187138831036,0.039787017214181875,0.5999999999999999,-0.39999999999999997
1.143815515972832,-0.2457400836574981,-0.4162609525046068,0.03958078950758992,0.5999999999999999,-0.39999999999999997
1.1443897088602326,-0.24490165314934625,-0.4167227971361944,0.03945600005795846,0.5999999999999999,-0.39999999999999997
1.1453902751603187,-0.24345083645036858,-0.4178095826987769,0.03929035059115371,0.5999999999999999,-0.39999999999999997
1.14583209042855,-0.24278341838735018,-0.4183797092770487,0.03922361181993583,0.5999999999999999,-0.39999999999999997
1.1466123848932848,-0.24152712531173628,-0.41953137511906813,0.03910105450954404,0.5999999999999999,-0.39999999999999997
1.1469531442619503,-0.2409359936133809,-0.4201082645955172,0.039043803214986905,0.5999999999999999,-0.39999999999999997
1.1475397942463608,-0.23982882130448188,-0.42126084675420294,0.038936800031028174,0.5999999999999999,-0.39999999999999997
1.1477872286206374,-0.23931286143066774,-0.4218361395346788,0.03888678846709115,0.5999999999999999,-0.39999999999999997
1.1480048785429033,-0.2388232751472681,-0.4224108070728354,0.03883836829757903,0.5999999999999999,-0.39999999999999997
1.148353712717943,-0.23792528637984284,-0.4235580122356226,0.03874746509558413,0.5999999999999999,-0.39999999999999997
1.1484862716413498,-0.2375180748476917,-0.4241306451555049,0.038704584768783024,0.5999999999999999,-0.39999999999999997
1.1486713035381637,-0.23679015259771483,-0.42527406848491855,0.038624209120897035,0.5999999999999999,-0.39999999999999997
1.1487252037667133,-0.23647074427452566,-0.4258448844160263,0.03858604563956569,0.5999999999999999,-0.39999999999999997
1.1487543159716638,-0.23618179831167654,-0.42641513195624947,0.03854982039992039,0.5999999999999999,-0.39999999999999997
1.1487412311887566,-0.23569793907787484,-0.4275540230661341,0.03848284087563325,0.5999999999999999,-0.39999999999999997
1.1487005749606634,-0.23550390833222276,-0.42812271460593765,0.03844824032791028,0.5999999999999999,-0.39999999999999997
1.1485548771221183,-0.23521460172508862,-0.42925862230412637,0.038387746164159964,0.5999999999999999,-0.39999999999999997
1.1484515007747138,-0.2351198276142108,-0.429825910741652,0.03835932270100373,0.5999999999999999,-0.39999999999999997
1.1483289238901806,-0.235058305572397,-0.4303927802645884,0.03833141428936604,0.5999999999999999,-0.39999999999999997
1.148029009938618,-0.23503935000555798,-0.43152524405905046,0.03828023532905078,0.5999999999999999,-0.39999999999999997
1.1478533240061015,-0.23508285305151386,-0.43209087039909244,0.03825666265062955,0.5999999999999999,-0.39999999999999997
1.147454738652778,-0.235276956436948,-0.4332210149659472,0.038208181877293024,0.5999999999999999,-0.39999999999999997
1.1472336017348583,-0.2354277052941066,-0.43378559119797044,0.03818867593900932,0.5999999999999999,-0.39999999999999997
1.1469990076457899,-0.23561494225454557,-0.4343498198490421,0.03816898717127204,0.5999999999999999,-0.39999999999999997
1.146492727149164,-0.23610098252838596,-0.43547730870986756,0.03812973736434189,0.5999999999999999,-0.39999999999999997
1.1462230062178211,-0.23639895521054957,-0.4360406400093777,0.03811087789096623,0.5999999999999999,-0.39999999999999997
1.145654354680869,-0.237107783792426,-0.4371664507284905,0.03807693613776886,0.5999999999999999,-0.39999999999999997
1.1453571499851791,-0.23751930915626296,-0.43772895994502914,0.03805992098430577,0.5999999999999999,-0.39999999999999997
1.1447414726280607,-0.23845705970548167,-0.4388532176031239,0.0380287071716745,0.5999999999999999,-0.39999999999999997
1.1444248428826724,-0.2389830097105957,-0.43941501485032,0.03801553597389962,0.5999999999999999,-0.39999999999999997
1.1441035643588862,-0.2395470591109169,-0.4399765975545993,0.038000529345254996,0.5999999999999999,-0.39999999999999997
1.1434502665538113,-0.2407916579365135,-0.4410991471578414,0.037974396365767715,0.5999999999999999,-0.39999999999999997
1.1431200030600353,-0.2414724985126088,-0.4416600850469754,0.03796278063102254,0.5999999999999999,-0.39999999999999997
1.1424570763049209,-0.2429490110426754,-0.44278160004242295,0.03793916947835596,0.5999999999999999,-0.39999999999999997
1.1421261035709538,-0.24374513893346866,-0.44334210650657635,0.037928090360754174,0.5999999999999999,-0.39999999999999997
1.141469373581522,-0.24545427247079352,-0.44446257394423183,0.03790701826387877,0.5999999999999999,-0.39999999999999997
1.1411454603819877,-0.24636673135688877,-0.44502259308739367,0.03789773630885329,0.5999999999999999,-0.39999999999999997
1.1408257069440837,-0.24731747967444906,-0.44558249497444624,0.03788804944939872,0.5999999999999999,-0.39999999999999997
1.140202261644989,-0.24933301169568978,-0.4467019416992981,0.03786999327298979,0.5999999999999999,-0.39999999999999997
1.1399001657860925,-0.2503982663866401,-0.44726149790054537,0.037861926202586105,0.5999999999999999,-0.39999999999999997
1.1393197774804051,-0.25264179754262583,-0.4483803087750551,0.03784633996336284,0.5999999999999999,-0.39999999999999997
1.1390432596747202,-0.25381920902082583,-0.44893959479624046,0.037838417058774665,0.5999999999999999,-0.39999999999999997
1.1385215305193679,-0.25628583646148995,-0.45005788685935366,0.037827585825345844,0.5999999999999999,-0.39999999999999997
1.138278093189038,-0.2575739934373766,-0.4506169237371265,0.037818734076334515,0.5999999999999999,-0.39999999999999997
1.1380471740164515,-0.25889941436311936,-0.4511758535000312,0.03781223692933944,0.5999999999999999,-0.39999999999999997
1.137626752887728,-0.2616578924021216,-0.45229348660868407,0.03779972847570323,0.5999999999999999,-0.39999999999999997
1.1374388475180606,-0.26309031674211436,-0.4528522252250342,0.03779501096233506,0.5999999999999999,-0.39999999999999997
1.1371116488415909,-0.26605986429198514,-0.45396948014438454,0.0377849843839515,0.5999999999999999,-0.39999999999999997
1.1369740319029993,-0.2675958199354896,-0.4545280644579708,0.03778001544000431,0.5999999999999999,-0.39999999999999997
1.1368544922055426,-0.26916656987665283,-0.4550865466285239,0.03777565830110308,0.5999999999999999,-0.39999999999999997
1.1366733697562048,-0.27240736055083764,-0.45620337703073455,0.03776582830447395,0.5999999999999999,-0.39999999999999997
1.1366132024564999,-0.27407671610540446,-0.4567617249157414,0.03776222021856035,0.5999999999999999,-0.44999999999999996
1.1365573645805298,-0.2775107664530692,-0.4578782577745497,0.03775340405944605,0.5999999999999999,-0.44999999999999996
1.1368210826639134,-0.2781981022216514,-0.45766914149744764,0.03937807304977836,0.5999999999999999,-0.44999999999999996
1.1383741482301126,-0.27556748928145763,-0.4542629584959794,0.040487676078357904,0.5999999999999999,-0.44999999999999996
1.1393180186054284,-0.2735533191896889,-0.4521293616249902,0.04073843896884388,0.5999999999999999,-0.44999999999999996
1.1413197299498217,-0.2688478018413126,-0.4476452493155598,0.04110220070988335,0.5999999999999999,-0.44999999999999996
1.142346797397693,-0.2662325319049481,-0.4453685789788695,0.04125642954594233,0.5999999999999999,-0.44999999999999996
1.1433800023511098,-0.2634609678547284,-0.4430867481388181,0.04140266595203812,0.5999999999999999,-0.44999999999999996
1.1454446908856517,-0.25745343373902013,-0.43852109124909866,0.041673852429707336,0.5999999999999999,-0.39999999999999997
1.1464664370764224,-0.2542203996362362,-0.4362400096085044,0.041800911896501924,0.5999999999999999,-0.39999999999999997
1.1484681868871702,-0.2473129184954842,-0.4316549972123378,0.04111341204059804,0.5999999999999999,-0.39999999999999997
1.1490212672395648,-0.2455805388404024,-0.4308073984686154,0.04030966945528269,0.5999999999999999,-0.39999999999999997
1.149524544843956,-0.24449633821408379,-0.43105339140722876,0.03966413898663945,0.5999999999999999,-0.39999999999999997
1.149656599653915,-0.24436338902641042,-0.43151212100940683,0.03953345612100767,0.5999999999999999,-0.39999999999999997
1.1497512780586365,-0.24433068685443143,-0.4320401669724574,0.039439530484816965,0.5999999999999999,-0.39999999999999997
1.1498662498405356,-0.24442775522645036,-0.4331688587983171,0.03929141040280637,0.5999999999999999,-0.39999999999999997
1.1498943576150562,-0.24453391010146322,-0.4337444986757035,0.03922596210837681,0.5999999999999999,-0.39999999999999997
1.1499007001216606,-0.2448444328560487,-0.43489934245933926,0.03910451202623544,0.5999999999999999,-0.39999999999999997
1.1498810965036648,-0.24504721248039532,-0.4354765352107006,0.03904818760609752,0.5999999999999999,-0.39999999999999997
1.149800424285856,-0.24555038730609977,-0.436628903175345,0.038941023459377444,0.5999999999999999,-0.39999999999999997
1.1497411511335465,-0.24585071496233094,-0.4372039863283048,0.03889075970094136,0.5999999999999999,-0.39999999999999997
1.149670392877505,-0.24618341979960176,-0.43777836262105474,0.03884233546819771,0.5999999999999999,-0.39999999999999997
1.149497598519392,-0.24694783527427872,-0.4389250624908032,0.03875164586866875,0.5999999999999999,-0.39999999999999997
1.1493971461797745,-0.24738049137199553,-0.43949741363684036,0.038709005731913715,0.5999999999999999,-0.39999999999999997
1.1491723981492459,-0.24834688679786363,-0.4406401672166471,0.038627747114276634,0.5999999999999999,-0.39999999999999997
1.1490497460260376,-0.248880782005976,-0.4412106620414489,0.038589923079634714,0.5999999999999999,-0.44999999999999996
1.1490874127400064,-0.24868376626482547,-0.441364654159222,0.04024722858140084,0.5999999999999999,-0.44999999999999996
